3
-0.400178 -0.296066 0.973440
-0.406820 -0.309020 1.016031
-0.214817 -0.298905 0.982772
-0.152996 -0.301356 0.990833
-0.144722 -0.306272 1.006996
-0.134846 -0.308316 1.013715
-0.123241 -0.306419 1.007477
-0.111305 -0.303256 0.997079
-0.098997 -0.298302 0.980790
0.163083 -0.318466 1.047089
0.162205 -0.296399 0.974534
0.175037 -0.300535 0.988133
0.185428 -0.300249 0.987192
0.196666 -0.301290 0.990615
0.232264 -0.306319 1.007150
0.247003 -0.311320 1.023593
0.284091 -0.304144 1.000000
-0.405570 -0.289505 0.986558
-0.389803 -0.285682 0.973531
-0.225462 -0.302684 1.031471
-0.153304 -0.291344 0.992825
-0.145190 -0.296458 1.010253
-0.135210 -0.298278 1.016456
0.165153 -0.311169 1.060383
0.167792 -0.295827 1.008102
0.187042 -0.309855 1.055906
0.200285 -0.296044 1.008841
0.241174 -0.306885 1.045786
0.253397 -0.308147 1.050087
0.255636 -0.297676 1.014405
0.273996 -0.294093 1.002195
0.286082 -0.295506 1.007009
0.304271 -0.302891 1.032174
0.318010 -0.305485 1.041014
0.319292 -0.296341 1.009854
0.329324 -0.295651 1.007503
0.345005 -0.299915 1.022035
0.358563 -0.302129 1.029577
0.372394 -0.304433 1.037432
0.384177 -0.304980 1.039293
0.391859 -0.302331 1.030266
0.402375 -0.301953 1.028979
0.415560 -0.303546 1.034406
0.429076 -0.305291 1.040353
-0.385324 -0.272107 0.962345
-0.237648 -0.307416 1.087219
0.049868 -0.288962 1.021955
0.059884 -0.284617 1.006590
0.071968 -0.289927 1.025369
0.081903 -0.286321 1.012615
0.173061 -0.314184 1.111157
0.178280 -0.284576 1.006442
0.197548 -0.297376 1.051714
0.203100 -0.274477 0.970726
0.230344 -0.296157 1.047402
0.238287 -0.292161 1.033269
0.249064 -0.291840 1.032132
0.252989 -0.283857 1.003902
0.272470 -0.281796 0.996613
0.282661 -0.281331 0.994966
0.302279 -0.289942 1.025420
0.340591 -0.315252 1.114933
0.331249 -0.296234 1.047672
0.338136 -0.283231 1.001687
0.353808 -0.287257 1.015925
0.360560 -0.284017 1.004466
0.375164 -0.286970 1.014911
0.385817 -0.286820 1.014381
0.402170 -0.290800 1.028454
0.410803 -0.289134 1.022563
0.426696 -0.292532 1.034582
-0.377122 -0.256241 0.941860
-0.216869 -0.283813 1.043203
-0.037196 -0.275252 1.011737
-0.026352 -0.275009 1.010844
-0.015467 -0.273700 1.006031
-0.004710 -0.273842 1.006554
0.005999 -0.271284 0.997152
0.016877 -0.274754 1.009906
0.027630 -0.274282 1.008171
0.039334 -0.280856 1.032335
0.049647 -0.276798 1.017419
0.061355 -0.280577 1.031309
0.071937 -0.278843 1.024937
0.082626 -0.277923 1.021553
0.093173 -0.276799 1.017425
0.146564 -0.274892 1.010415
0.165766 -0.289557 1.064318
0.171105 -0.279677 1.028001
0.180295 -0.276906 1.017817
0.192265 -0.278477 1.023590
0.199718 -0.273688 1.005987
0.254437 -0.286858 1.054397
0.256923 -0.277368 1.019513
0.269082 -0.278668 1.024292
0.279919 -0.278551 1.023862
0.314544 -0.290293 1.067023
0.326233 -0.280712 1.031806
0.332134 -0.276439 1.016101
0.337500 -0.272005 0.999802
0.368760 -0.279488 1.027309
0.368811 -0.271439 0.997724
0.391335 -0.279918 1.028888
0.398058 -0.276939 1.017939
0.410669 -0.278107 1.022232
-0.381277 -0.248880 0.952237
-0.373403 -0.250430 0.958167
-0.366874 -0.252994 0.967978
-0.365695 -0.259504 0.992885
-0.357539 -0.261304 0.999772
-0.368980 -0.277979 1.063573
-0.347331 -0.269993 1.033016
-0.193400 -0.243149 0.930310
-0.189396 -0.265426 1.015541
-0.176979 -0.263114 1.006695
-0.167155 -0.264605 1.012403
-0.146653 -0.248231 0.949753
-0.142387 -0.258945 0.990747
-0.089916 -0.260425 0.996407
-0.079190 -0.260197 0.995536
-0.070163 -0.266348 1.019071
-0.059126 -0.265727 1.016695
-0.047482 -0.261483 1.000456
-0.037230 -0.264674 1.012666
-0.026422 -0.264897 1.013519
-0.015538 -0.264144 1.010638
-0.004758 -0.265741 1.016748
0.006084 -0.264326 1.011334
0.016937 -0.264902 1.013539
0.027919 -0.266248 1.018688
0.038837 -0.266406 1.019291
0.049387 -0.264525 1.012095
0.060280 -0.264827 1.013253
0.072757 -0.270933 1.036615
0.086127 -0.278311 1.064843
0.095475 -0.272486 1.042555
0.104254 -0.266427 1.019372
0.132312 -0.279643 1.069937
0.147006 -0.264881 1.013458
0.158558 -0.266079 1.018040
0.167861 -0.263588 1.008512
0.179587 -0.264976 1.013822
0.190800 -0.265491 1.015791
0.202781 -0.266961 1.021415
0.211306 -0.263964 1.009949
0.222205 -0.264080 1.010393
0.245163 -0.277851 1.063082
0.248711 -0.269380 1.030670
0.257259 -0.266812 1.020846
0.294169 -0.292672 1.119790
0.277802 -0.265576 1.016116
0.290869 -0.267600 1.023860
0.329423 -0.292073 1.117498
0.325461 -0.278458 1.065405
0.328863 -0.271851 1.040125
0.328616 -0.262758 1.005337
0.340832 -0.263892 1.009672
0.348208 -0.261323 0.999844
0.376059 -0.273816 1.047643
0.374871 -0.265053 1.014116
0.389223 -0.267463 1.023335
0.405296 -0.270890 1.036449
0.408242 -0.265595 1.016189
0.421513 -0.267117 1.022015
-0.363161 -0.247160 0.986005
-0.355444 -0.249143 0.993914
-0.354636 -0.256240 1.022226
-0.345241 -0.257386 1.026801
-0.206534 -0.249036 0.993487
-0.201644 -0.256327 1.022575
-0.189825 -0.255142 1.017845
-0.178706 -0.254810 1.016520
-0.171248 -0.259992 1.037195
-0.153386 -0.249003 0.993355
-0.143038 -0.249484 0.995276
-0.133971 -0.252458 1.007139
-0.025683 -0.246957 0.985192
-0.015274 -0.249033 0.993475
-0.004658 -0.249532 0.995466
0.006039 -0.251615 1.003777
0.016877 -0.253152 1.009907
0.027647 -0.252868 1.008773
0.038689 -0.254535 1.015426
0.049152 -0.252492 1.007276
0.059822 -0.252061 1.005555
0.069456 -0.248057 0.989583
0.080283 -0.248812 0.992595
0.092991 -0.254538 1.015437
0.102962 -0.252358 1.006741
0.114246 -0.253505 1.011314
0.140549 -0.262218 1.046077
0.155494 -0.268711 1.071980
0.160608 -0.258490 1.031201
0.164352 -0.247518 0.987432
0.182435 -0.258162 1.029895
0.192105 -0.256368 1.022739
0.202206 -0.255311 1.018520
0.215791 -0.258535 1.031383
0.223387 -0.254621 1.015767
0.234071 -0.254425 1.014987
0.248210 -0.257836 1.028592
0.254454 -0.253104 1.009715
0.276373 -0.263715 1.052047
0.278841 -0.255661 1.019919
0.290834 -0.256618 1.023734
0.307167 -0.261196 1.042000
0.321964 -0.264194 1.053958
0.324574 -0.257326 1.026561
0.327550 -0.251189 1.002077
0.347674 -0.258174 1.029941
0.358206 -0.257826 1.028554
0.368120 -0.257067 1.025527
0.372859 -0.252843 1.008674
0.386518 -0.254735 1.016224
0.398812 -0.255649 1.019868
0.401280 -0.250383 0.998860
0.412634 -0.250790 1.000486
-0.348869 -0.248994 1.037591
-0.193531 -0.223400 0.930938
-0.189474 -0.230580 0.960856
-0.182850 -0.235280 0.980444
-0.175736 -0.239884 0.999626
-0.165226 -0.240146 1.000719
-0.151840 -0.235977 0.983348
-0.140206 -0.234111 0.975570
-0.132365 -0.238789 0.995064
-0.122465 -0.240245 1.001132
-0.112314 -0.241441 1.006117
0.027388 -0.239813 0.999332
0.038066 -0.239751 0.999074
0.049786 -0.244840 1.020278
0.061145 -0.246643 1.027792
0.091428 -0.239581 0.998363
0.102786 -0.241178 1.005018
0.114354 -0.242918 1.012272
0.125658 -0.243844 1.016128
0.138894 -0.248074 1.033759
0.149256 -0.246926 1.028974
0.157000 -0.241902 1.008036
0.172061 -0.248072 1.033749
0.181453 -0.245817 1.024353
0.193686 -0.247450 1.031155
0.200675 -0.242566 1.010805
0.215048 -0.246653 1.027833
0.222040 -0.242286 1.009640
0.233446 -0.242919 1.012275
0.255196 -0.253782 1.057543
0.257364 -0.245076 1.021265
0.270401 -0.247007 1.029312
0.277546 -0.243616 1.015180
0.292424 -0.247012 1.029333
0.300247 -0.244418 1.018523
0.309265 -0.242945 1.012385
0.313202 -0.237716 0.990593
0.336292 -0.246889 1.028820
0.340420 -0.242002 1.008452
0.349504 -0.240829 1.003566
0.366770 -0.245196 1.021766
0.372819 -0.242029 1.008568
0.383761 -0.242127 1.008974
0.399337 -0.245063 1.021210
0.406443 -0.242784 1.011712
0.417332 -0.242824 1.011877
-0.197590 -0.229741 1.002017
-0.186340 -0.229084 0.999154
-0.174581 -0.227685 0.993053
-0.165716 -0.230124 1.003687
-0.154287 -0.229093 0.999193
-0.144904 -0.231172 1.008263
-0.133277 -0.229719 1.001925
-0.122721 -0.230017 1.003224
-0.111512 -0.229034 0.998937
-0.100276 -0.227779 0.993461
-0.090363 -0.229588 1.001353
-0.076306 -0.219941 0.959278
-0.049141 -0.237397 1.035412
-0.038899 -0.242590 1.058060
0.026903 -0.225069 0.981642
0.037985 -0.228576 0.996936
0.152428 -0.240934 1.050839
0.162288 -0.238905 1.041988
0.179610 -0.232477 1.013952
0.193774 -0.236528 1.031621
0.204776 -0.236492 1.031465
0.216176 -0.236896 1.033224
0.229294 -0.239051 1.042625
0.238687 -0.237303 1.035002
0.245278 -0.233048 1.016443
0.256314 -0.233198 1.017099
0.272188 -0.237558 1.036115
0.277216 -0.232482 1.013975
0.288959 -0.233207 1.017134
0.296665 -0.230739 1.006373
0.305067 -0.228967 0.998643
0.324010 -0.234959 1.024775
0.330456 -0.231792 1.010964
0.338301 -0.229777 1.002175
0.353305 -0.232598 1.014480
0.357072 -0.228074 0.994748
0.404818 -0.231036 1.007666
0.417554 -0.232125 1.012416
-0.208620 -0.219352 1.003521
-0.198290 -0.219799 1.005565
-0.182243 -0.213597 0.977189
-0.175846 -0.218638 1.000251
-0.155765 -0.220499 1.008766
-0.143073 -0.217605 0.995524
-0.132391 -0.217548 0.995264
-0.121473 -0.217058 0.993022
-0.110305 -0.215986 0.988122
-0.100713 -0.218101 0.997796
-0.090173 -0.218418 0.999247
-0.077435 -0.212782 0.973463
-0.069021 -0.219126 1.002484
-0.059157 -0.222349 1.017229
-0.048110 -0.221577 1.013698
-0.036998 -0.219968 1.006337
-0.025955 -0.217625 0.995617
-0.015282 -0.217263 0.993964
-0.004658 -0.217595 0.995481
0.005966 -0.216748 0.991605
0.026953 -0.214970 0.983473
0.037747 -0.216547 0.990687
0.046832 -0.209783 0.959741
0.057933 -0.212857 0.973803
0.274550 -0.219506 1.004223
0.291699 -0.224436 1.026779
0.296153 -0.219596 1.004636
0.312658 -0.223718 1.023493
0.324917 -0.224626 1.027646
-0.208193 -0.208193 1.001469
-0.200308 -0.211172 1.015798
-0.185737 -0.207040 0.995924
-0.175870 -0.207967 1.000383
-0.165635 -0.208552 1.003198
-0.155930 -0.209932 1.009833
-0.145772 -0.210861 1.014301
-0.133259 -0.208258 1.001783
-0.123325 -0.209586 1.008169
-0.112739 -0.209951 1.009924
-0.102309 -0.210715 1.013600
-0.090667 -0.208871 1.004730
-0.080122 -0.209394 1.007247
-0.069362 -0.209433 1.007432
-0.058946 -0.210717 1.013607
-0.048211 -0.211176 1.015818
-0.037073 -0.209634 1.008399
-0.026009 -0.207405 0.997678
-0.015097 -0.204135 0.981950
-0.004644 -0.206322 0.992468
0.005959 -0.205926 0.990562
0.016493 -0.205176 0.986956
0.027216 -0.206446 0.993065
0.037646 -0.205404 0.988052
0.048347 -0.205973 0.990791
0.296840 -0.209336 1.006966
0.294061 -0.200116 0.962615
0.341554 -0.210343 1.011812
0.345662 -0.206336 0.992534
0.353706 -0.204846 0.985370
0.363051 -0.204175 0.982141
-0.207346 -0.196679 0.997396
-0.163180 -0.194891 0.988327
-0.155790 -0.198952 1.008924
-0.145895 -0.200182 1.015161
-0.134495 -0.199377 1.011079
-0.124086 -0.200030 1.014389
-0.111171 -0.196380 0.995879
-0.101648 -0.198583 1.007053
-0.090398 -0.197537 1.001746
-0.080036 -0.198408 1.006163
-0.069633 -0.199435 1.011371
-0.059266 -0.200959 1.019102
-0.048371 -0.200978 1.019194
-0.037292 -0.200023 1.014354
0.016352 -0.192948 0.978478
0.026929 -0.193755 0.982570
0.037395 -0.193536 0.981459
0.048779 -0.197121 0.999637
0.060223 -0.199616 1.012288
0.069730 -0.195907 0.993480
0.080448 -0.196133 0.994626
0.260364 -0.195439 0.991107
0.266130 -0.191952 0.973425
0.280259 -0.194533 0.986512
0.293730 -0.196486 0.996418
0.305583 -0.197258 1.000332
0.318007 -0.198334 1.005790
0.330075 -0.199125 1.009800
0.352147 -0.205710 1.043193
0.362474 -0.205240 1.040808
-0.112449 -0.187864 1.007330
-0.102306 -0.189029 1.013574
-0.091573 -0.189250 1.014762
-0.078380 -0.183764 0.985344
-0.067985 -0.184154 0.987433
-0.057218 -0.183493 0.983893
-0.047205 -0.185496 0.994629
-0.037461 -0.190027 1.018927
0.048928 -0.187000 1.002697
0.058818 -0.184384 0.988667
0.069224 -0.183937 0.986274
0.079304 -0.182858 0.980486
0.091006 -0.185332 0.993754
0.103765 -0.189219 1.014595
0.114579 -0.189157 1.014260
0.124397 -0.187604 1.005934
0.212155 -0.189109 1.014006
0.221029 -0.187438 1.005042
0.226473 -0.183148 0.982041
0.246604 -0.190589 1.021939
0.253279 -0.187440 1.005054
0.264309 -0.187639 1.006123
0.267632 -0.182565 0.978917
0.275951 -0.181154 0.971347
0.293916 -0.185947 0.997047
0.325927 -0.185958 0.997110
0.345471 -0.190864 1.023417
0.359770 -0.192660 1.033044
-0.120737 -0.173519 0.987011
-0.113468 -0.178696 1.016459
-0.102901 -0.179225 1.019469
-0.090145 -0.175616 0.998942
-0.079777 -0.176314 1.002911
-0.069472 -0.177391 1.009036
-0.057611 -0.174158 0.990646
-0.047923 -0.177518 1.009760
-0.036641 -0.175212 0.996643
-0.025991 -0.175275 0.997000
-0.015380 -0.175863 1.000344
-0.004718 -0.177265 1.008319
0.089930 -0.172640 0.982014
0.100108 -0.172081 0.978832
0.108534 -0.168902 0.960752
0.120324 -0.171055 0.973000
0.137073 -0.179354 1.020203
0.148267 -0.179697 1.022156
0.158786 -0.179230 1.019500
0.171045 -0.180662 1.027646
0.181605 -0.180235 1.025213
0.188200 -0.176144 1.001947
0.199068 -0.176279 1.002712
0.209684 -0.176188 1.002197
0.228045 -0.182298 1.036948
0.237292 -0.172875 0.983349
0.240585 -0.167835 0.954683
0.270009 -0.180693 1.027819
0.281785 -0.181197 1.030687
0.282900 -0.175065 0.995807
0.299930 -0.178870 1.017451
0.307725 -0.177093 1.007343
0.315235 -0.175279 0.997024
-0.280285 -0.163665 0.991268
-0.259636 -0.157568 0.954339
-0.120727 -0.162949 0.986927
-0.113154 -0.167359 1.013643
-0.103048 -0.168562 1.020924
-0.089487 -0.163728 0.991648
-0.079290 -0.164576 0.996783
-0.069238 -0.166037 1.005634
-0.058278 -0.165457 1.002120
-0.048013 -0.167031 1.011652
-0.015031 -0.161424 0.977696
-0.004599 -0.162293 0.982957
0.006154 -0.168905 1.023002
0.016915 -0.167118 1.012177
0.025561 -0.153992 0.932679
0.038098 -0.165090 0.999900
0.092848 -0.149891 0.907845
0.109152 -0.159530 0.966221
0.115868 -0.154700 0.936965
0.126265 -0.155162 0.939765
0.143096 -0.162878 0.986502
0.154147 -0.163409 0.989716
0.168448 -0.167095 1.012040
0.180126 -0.167891 1.016864
0.190776 -0.167693 1.015661
0.281788 -0.170175 1.030696
0.276169 -0.160503 0.972115
0.290316 -0.162603 0.984837
0.304143 -0.164383 0.995617
0.316246 -0.165143 1.000219
-0.321777 -0.152629 0.988457
-0.272194 -0.148645 0.962652
-0.252036 -0.143048 0.926403
-0.129758 -0.163793 1.060753
-0.110737 -0.153175 0.991993
-0.098150 -0.150150 0.972402
-0.086658 -0.148281 0.960295
-0.077999 -0.151410 0.980562
-0.069331 -0.155489 1.006976
-0.056094 -0.148940 0.964563
-0.046259 -0.150506 0.974706
-0.036757 -0.154379 0.999785
-0.025997 -0.153982 0.997218
0.005841 -0.149927 0.970956
0.016400 -0.151537 0.981381
0.027090 -0.152631 0.988469
0.038109 -0.154441 1.000190
0.049675 -0.157192 1.018003
0.058863 -0.152778 0.989419
0.085304 -0.162853 1.054670
0.089264 -0.150510 0.974732
0.278492 -0.151368 0.980290
0.279867 -0.146597 0.949389
0.299380 -0.151328 0.980026
0.313775 -0.153239 0.992405
0.297182 -0.140387 0.909170
-0.321978 -0.142147 0.989075
-0.271215 -0.137851 0.959190
-0.264887 -0.139928 0.973637
-0.033598 -0.131337 0.913858
-0.024349 -0.134231 0.933995
-0.015258 -0.142628 0.992423
-0.004674 -0.143563 0.998930
0.025936 -0.136007 0.946355
0.036373 -0.137198 0.954643
0.047621 -0.140255 0.975911
0.060538 -0.146244 1.017587
0.067655 -0.138531 0.963917
0.079307 -0.140918 0.980526
0.087836 -0.137845 0.959146
0.101640 -0.129305 0.899722
0.121524 -0.141230 0.982701
0.283764 -0.143551 0.998848
0.292392 -0.142549 0.991877
0.297725 -0.140068 0.974610
0.317552 -0.144342 1.004351
-0.261161 -0.127693 0.959942
-0.025424 -0.129728 0.975245
-0.014538 -0.125789 0.945633
-0.004479 -0.127345 0.957329
0.005672 -0.125408 0.942765
0.016484 -0.131211 0.986387
0.045343 -0.123605 0.929214
0.057048 -0.127558 0.958926
0.070488 -0.133592 1.004286
0.077030 -0.126686 0.952375
0.088114 -0.127991 0.962180
0.101427 -0.131922 0.991733
0.109423 -0.128847 0.968622
0.119536 -0.128582 0.966624
0.139619 -0.128037 0.962532
0.150043 -0.128148 0.963367
0.277601 -0.129983 0.977156
0.276636 -0.124831 0.938429
0.298418 -0.129946 0.976877
0.329352 -0.138565 1.041672
-0.299429 -0.112516 0.919805
-0.260878 -0.117299 0.958904
-0.255168 -0.119427 0.976296
-0.004474 -0.116958 0.956119
0.005631 -0.114496 0.935988
0.015985 -0.117007 0.956518
0.025391 -0.113329 0.926448
0.035273 -0.113244 0.925755
0.072429 -0.126233 1.031937
0.079426 -0.120124 0.982000
0.090988 -0.121539 0.993564
0.103421 -0.111989 0.915494
0.114087 -0.112854 0.922565
0.128939 -0.117392 0.959666
0.142018 -0.119767 0.979076
0.155974 -0.122503 1.001446
0.179351 -0.131812 1.077547
0.277740 -0.119592 0.977645
0.273902 -0.113660 0.929156
0.279920 -0.112091 0.916325
0.290846 -0.112526 0.919886
-0.305817 -0.104869 0.939429
-0.309118 -0.109602 0.981826
-0.260641 -0.106946 0.958030
-0.250545 -0.107010 0.958605
0.005838 -0.108319 0.970329
0.015943 -0.106499 0.954028
0.025365 -0.103316 0.925517
0.034722 -0.101730 0.911310
0.044834 -0.102565 0.918786
0.058569 -0.109900 0.984490
0.066087 -0.105110 0.941588
0.073563 -0.101529 0.909508
0.086038 -0.104878 0.939508
0.101585 -0.110880 0.993276
0.112915 -0.111579 0.999532
0.144480 -0.111189 0.996044
0.151876 -0.108856 0.975137
0.162917 -0.109265 0.978809
0.176766 -0.111396 0.997897
0.182594 -0.108517 0.972103
0.193288 -0.108684 0.973598
0.263721 -0.103627 0.928296
0.272173 -0.103068 0.923290
0.279289 -0.102060 0.914260
0.294981 -0.104148 0.932964
-0.271174 -0.100608 0.996749
-0.246546 -0.095213 0.943305
0.043550 -0.090083 0.892477
0.054451 -0.092383 0.915266
0.065886 -0.094751 0.938724
0.072901 -0.090976 0.901322
0.083257 -0.091765 0.909147
0.096134 -0.094877 0.939974
0.105963 -0.094677 0.937988
0.119273 -0.097352 0.964498
0.129121 -0.097001 0.961017
0.164247 -0.099604 0.986803
0.174093 -0.099200 0.982806
0.182588 -0.098117 0.972068
0.194493 -0.098884 0.979669
0.277270 -0.094938 0.940579
0.288778 -0.095417 0.945321
0.289619 -0.092458 0.916003
-0.271286 -0.089984 0.997160
-0.248462 -0.085786 0.950637
0.042992 -0.079506 0.881045
0.062459 -0.080305 0.889894
0.073875 -0.082423 0.913369
0.083459 -0.082240 0.911345
0.090753 -0.080076 0.887366
0.101097 -0.080758 0.894918
0.111305 -0.081223 0.900070
0.126080 -0.084681 0.938390
0.137253 -0.085388 0.946220
0.147272 -0.085329 0.945574
0.282578 -0.086503 0.958586
0.290786 -0.085900 0.951894
-0.301059 -0.076064 0.956230
-0.264979 -0.077476 0.973978
-0.249297 -0.075873 0.953830
0.071721 -0.070536 0.886737
0.081815 -0.071065 0.893395
0.094694 -0.073651 0.925893
0.106922 -0.075288 0.946478
0.110699 -0.071206 0.895164
0.125488 -0.074294 0.933983
0.137025 -0.075143 0.944650
0.144139 -0.073616 0.925461
0.264806 -0.074146 0.932117
0.280392 -0.075661 0.951172
-0.301193 -0.065866 0.956654
-0.261928 -0.066286 0.962762
-0.253904 -0.066885 0.971460
0.081705 -0.061428 0.892191
0.092593 -0.062334 0.905355
0.105350 -0.064207 0.932565
0.110916 -0.061753 0.896917
0.124136 -0.063612 0.923921
0.141841 -0.067326 0.977856
0.239262 -0.062707 0.910777
0.249169 -0.062749 0.911388
0.261347 -0.063338 0.919940
0.271333 -0.063372 0.920439
0.281496 -0.063445 0.921485
0.295225 -0.064288 0.933736
0.303695 -0.063968 0.929096
0.308209 -0.062862 0.913031
0.320664 -0.063394 0.920754
0.329219 -0.063146 0.917155
-0.313121 -0.057838 0.994542
-0.252576 -0.053991 0.928389
-0.250834 -0.055812 0.959713
0.076117 -0.054729 0.941082
0.094412 -0.053685 0.923137
0.098257 -0.050582 0.869782
0.108787 -0.051159 0.879703
0.122620 -0.053074 0.912634
0.135538 -0.054340 0.934398
0.146772 -0.054803 0.942364
0.216361 -0.052142 0.896608
0.224858 -0.051890 0.892275
0.240283 -0.053192 0.914665
0.249945 -0.053167 0.914224
0.259807 -0.053184 0.914521
0.268177 -0.052906 0.909735
-0.368624 -0.046159 0.972596
-0.358739 -0.046226 0.973998
-0.291298 -0.045455 0.957761
-0.256532 -0.046583 0.981514
-0.242287 -0.045873 0.966565
0.076073 -0.044638 0.940534
0.097718 -0.041053 0.865009
0.110286 -0.042326 0.891824
0.121555 -0.042937 0.904707
0.129291 -0.042303 0.891336
0.219567 -0.043183 0.909894
0.232395 -0.043767 0.922182
0.234964 -0.042449 0.894417
0.238534 -0.041408 0.872486
-0.368276 -0.035723 0.971676
-0.362606 -0.036195 0.984499
-0.352760 -0.036265 0.986409
-0.258654 -0.036384 0.989631
-0.242656 -0.035590 0.968036
0.121979 -0.033377 0.907863
0.130021 -0.032955 0.896363
0.215243 -0.032793 0.891975
0.230433 -0.033617 0.914396
-0.369459 -0.024715 0.948045
-0.357422 -0.024585 0.943040
-0.359911 -0.025475 0.977181
-0.348087 -0.025375 0.973342
-0.340048 -0.025553 0.980176
-0.263376 -0.026270 1.007699
-0.237223 -0.024671 0.946361
0.124494 -0.024156 0.926580
0.134316 -0.024140 0.925976
-0.377351 -0.014887 0.968297
-0.357840 -0.014516 0.944142
-0.361442 -0.015087 0.981339
-0.350560 -0.015071 0.980258
-0.298969 -0.014599 0.949591
-0.294369 -0.014880 0.967861
-0.257511 -0.015148 0.985259
-0.246861 -0.015141 0.984809
0.124995 -0.014303 0.930309
0.135394 -0.014351 0.933408
-0.375898 -0.004513 0.964569
-0.369550 -0.004562 0.975039
-0.370188 -0.004703 1.005085
-0.351453 -0.004598 0.982753
-0.308020 -0.004578 0.978339
-0.291617 -0.004486 0.958811
-0.292342 -0.004661 0.996228
-0.258674 -0.004631 0.989707
-0.252430 -0.004712 1.007026
-0.362879 0.005602 0.931161
-0.357126 0.005669 0.942259
-0.363633 0.005940 0.987288
-0.354351 0.005961 0.990859
-0.344413 0.005972 0.992759
-0.317029 0.006058 1.006956
-0.320444 0.006338 1.053592
-0.281163 0.005764 0.958130
-0.270088 0.005747 0.955204
-0.266965 0.006145 1.021432
-0.254948 0.006119 1.017072
-0.363132 0.015572 0.931810
-0.356246 0.015707 0.939935
-0.351897 0.015966 0.955422
-0.343701 0.016061 0.961078
-0.317201 0.016837 1.007500
-0.306421 0.016836 1.007485
-0.267967 0.017133 1.025265
-0.254416 0.016961 1.014950
-0.247164 0.017212 1.029963
-0.376106 0.026450 0.965101
-0.359085 0.025966 0.947426
-0.342891 0.025515 0.930970
-0.342819 0.026272 0.958611
-0.292305 0.026340 0.961073
-0.290105 0.027094 0.988604
-0.255209 0.027903 1.018115
-0.241967 0.027634 1.008309
-0.388165 0.035976 0.944219
-0.403122 0.038360 1.006794
-0.401643 0.039269 1.030631
-0.345560 0.035748 0.938217
-0.348605 0.037141 0.974789
-0.251559 0.038237 1.003552
-0.236031 0.037476 0.983571
-0.373093 0.044286 0.907556
-0.369426 0.045022 0.922640
-0.369611 0.046281 0.948436
-0.361789 0.046580 0.954561
-0.347239 0.046004 0.942775
-0.334046 0.045580 0.934081
-0.291016 0.048392 0.991708
-0.259145 0.050447 1.033817
-0.247586 0.050345 1.031723
-0.382335 0.055330 0.930037
-0.368503 0.054753 0.920335
-0.353977 0.055563 0.933950
-0.338881 0.054738 0.920082
-0.327661 0.054508 0.916225
-0.318752 0.054661 0.918792
-0.276061 0.053999 0.907663
-0.287173 0.058220 0.978612
-0.250289 0.059402 0.998488
-0.249466 0.061845 1.039558
-0.385503 0.065818 0.937743
-0.374450 0.065638 0.935188
-0.361797 0.065161 0.928386
-0.346949 0.064250 0.915407
-0.337824 0.064377 0.917213
-0.325470 0.063877 0.910100
-0.281847 0.065042 0.926690
-0.247998 0.069439 0.989347
-0.239090 0.069929 0.996321
-0.411096 0.080882 1.000000
-0.376596 0.076074 0.940546
-0.392249 0.081410 1.006527
-0.350079 0.074708 0.923666
-0.343109 0.075347 0.931564
-0.331512 0.074977 0.926995
-0.316477 0.073784 0.912235
-0.287672 0.076502 0.945842
-0.271728 0.074895 0.925980
-0.258185 0.073854 0.913109
-0.247513 0.073585 0.909776
-0.241308 0.077862 0.962657
-0.242325 0.081675 1.009801
-0.411096 0.091578 1.000000
-0.378419 0.086550 0.945101
-0.380647 0.089449 0.976755
-0.373884 0.090339 0.986473
-0.340782 0.084732 0.925246
-0.325877 0.083449 0.911239
-0.314301 0.082966 0.905961
-0.275056 0.085837 0.937320
-0.257659 0.083450 0.911247
-0.259428 0.094778 1.034946
-0.242206 0.092430 1.009304
-0.229604 0.091708 1.001420
-0.391502 0.100000 0.977776
-0.363029 0.095272 0.931546
-0.361601 0.097575 0.954066
-0.339186 0.094184 0.920911
-0.333292 0.095315 0.931971
-0.325594 0.095984 0.938514
-0.266560 0.092901 0.908368
-0.258895 0.093643 0.915618
-0.230874 0.098395 0.962083
-0.228478 0.101916 0.996512
-0.375593 0.103212 0.913638
-0.367215 0.103605 0.917119
-0.366626 0.106278 0.940777
-0.355482 0.105955 0.937921
-0.333323 0.102235 0.904992
-0.325849 0.102932 0.911158
-0.319699 0.104103 0.921523
-0.276333 0.106379 0.941672
-0.256280 0.102391 0.906370
-0.225505 0.106157 0.939711
-0.231324 0.113976 1.008922
-0.377563 0.113576 0.918430
-0.371369 0.114697 0.927494
-0.374597 0.118869 0.961229
-0.359970 0.117451 0.949762
-0.343544 0.115346 0.932745
-0.330156 0.114166 0.923203
-0.325021 0.115855 0.936861
-0.278343 0.117297 0.948521
-0.255809 0.111879 0.904707
-0.232874 0.120005 0.970415
-0.228163 0.123062 0.995137
-0.386733 0.126396 0.940735
-0.373524 0.125340 0.932876
-0.358145 0.126961 0.944947
-0.344222 0.125569 0.934586
-0.330985 0.124351 0.925520
-0.284331 0.130184 0.968928
-0.262046 0.124518 0.926762
-0.246379 0.121676 0.905609
-0.221121 0.123803 0.921439
-0.225227 0.131984 0.982332
-0.388335 0.137022 0.944633
-0.394566 0.142939 0.985426
-0.366743 0.136506 0.941077
-0.358404 0.137167 0.945631
-0.343607 0.135322 0.932914
-0.340316 0.138035 0.951611
-0.274347 0.135611 0.934904
-0.258600 0.132662 0.914575
-0.250581 0.133602 0.921053
-0.223102 0.134856 0.929697
-0.231332 0.146353 1.008959
-0.404443 0.153228 0.983815
-0.394195 0.153335 0.984500
-0.365943 0.146251 0.939022
-0.361271 0.148459 0.953195
-0.353587 0.149521 0.960012
-0.342560 0.149190 0.957887
-0.312996 0.140517 0.902202
-0.257652 0.141922 0.911223
-0.250461 0.143384 0.920612
-0.230410 0.149542 0.960151
-0.231202 0.157055 1.008390
-0.221595 0.157895 1.013781
-0.384079 0.155505 0.934279
-0.386344 0.160600 0.964892
-0.363728 0.155349 0.933339
-0.343760 0.155347 0.933330
-0.326214 0.151827 0.912181
-0.313614 0.150462 0.903982
-0.236818 0.164255 0.986850
-0.219774 0.159544 0.958548
-0.224161 0.170692 1.025521
-0.385701 0.166196 0.938226
-0.378652 0.167517 0.945681
-0.377926 0.171785 0.969772
-0.358915 0.167747 0.946979
-0.349945 0.168304 0.950124
-0.324977 0.160970 0.908721
-0.331399 0.169212 0.955247
-0.216674 0.167401 0.945027
-0.227005 0.183964 1.038531
-0.388489 0.177505 0.945007
-0.421552 0.203184 1.081720
-0.353518 0.175200 0.932739
-0.339798 0.173291 0.922574
-0.326913 0.171706 0.914134
-0.314960 0.170528 0.907863
-0.306659 0.171314 0.912051
-0.215326 0.176404 0.939148
-0.211950 0.182134 0.969653
-0.386850 0.186820 0.941021
-0.367929 0.182429 0.918902
-0.370051 0.188517 0.949565
-0.352112 0.184440 0.929030
-0.346279 0.186652 0.940171
-0.334243 0.185552 0.934630
-0.311495 0.183925 0.926435
-0.301078 0.183614 0.924873
-0.212786 0.184249 0.928070
-0.218290 0.198263 0.998659
-0.380685 0.193747 0.926023
-0.385114 0.201236 0.961820
-0.364914 0.207292 0.990765
-0.338815 0.198223 0.947417
-0.324659 0.195796 0.935818
-0.312289 0.194327 0.928796
-0.302534 0.194442 0.929346
-0.213399 0.194734 0.930741
-0.206965 0.198104 0.946851
-0.392722 0.210090 0.955304
-0.372721 0.204717 0.930870
-0.369228 0.208364 0.947454
-0.355957 0.212541 0.966446
-0.332749 0.204625 0.930453
-0.317793 0.201453 0.916027
-0.265399 0.214536 0.975520
-0.239368 0.201412 0.915844
-0.229808 0.201618 0.916780
-0.210864 0.202257 0.919687
-0.206391 0.207653 0.944224
-0.194916 0.206198 0.937604
-0.412713 0.231522 1.003932
-0.411842 0.237205 1.028575
-0.368156 0.217863 0.944703
-0.362172 0.226768 0.983319
-0.338503 0.218287 0.946543
-0.323649 0.215143 0.932909
-0.263658 0.223494 0.969121
-0.241954 0.213489 0.925738
-0.222378 0.223675 0.969905
-0.206431 0.217795 0.944408
-0.192027 0.213021 0.923707
-0.394792 0.231739 0.960339
-0.381456 0.229893 0.952686
-0.359701 0.222731 0.923008
-0.365276 0.239319 0.991747
-0.333861 0.225278 0.933562
-0.324259 0.225545 0.934667
-0.333564 0.239397 0.992071
-0.319803 0.237062 0.982394
-0.256488 0.218894 0.907108
-0.210289 0.221325 0.917179
-0.201489 0.222439 0.921798
-0.186912 0.216963 0.899102
-0.381696 0.233983 0.928484
-0.360938 0.227168 0.901441
-0.367554 0.237681 0.943158
-0.347826 0.237986 0.944369
-0.335245 0.236238 0.937433
-0.331420 0.248400 0.985694
-0.324029 0.250840 0.995375
-0.254416 0.226749 0.899779
-0.245205 0.227131 0.901295
-0.236215 0.227758 0.903781
-0.199908 0.230475 0.914565
-0.191638 0.232307 0.921834
-0.377415 0.241177 0.918069
-0.359262 0.235709 0.897255
-0.370358 0.249658 0.950352
-0.357914 0.248078 0.944338
-0.350848 0.250242 0.952576
-0.330234 0.242583 0.923419
-0.314494 0.245718 0.935354
-0.240496 0.232223 0.883984
-0.231746 0.232932 0.886681
-0.222615 0.243698 0.927664
-0.202082 0.242869 0.924508
-0.188123 0.237725 0.904927
-0.353723 0.241524 0.883422
-0.356876 0.250364 0.915758
-0.371844 0.268226 0.981090
-0.346159 0.256949 0.939843
-0.334144 0.255448 0.934353
-0.326296 0.257139 0.940537
-0.265901 0.267208 0.977366
-0.221686 0.252561 0.923794
-0.193413 0.241914 0.884849
-0.192802 0.253557 0.927435
-0.395759 0.273492 0.962693
-0.337994 0.246394 0.867306
-0.354854 0.265984 0.936265
-0.342538 0.264208 0.930012
-0.332300 0.263977 0.929198
-0.321291 0.263099 0.926110
-0.321627 0.271752 0.956568
-0.263466 0.275118 0.968414
-0.203149 0.264031 0.929390
-0.194899 0.266340 0.937518
-0.166136 0.239349 0.842507
-0.367635 0.263621 0.894279
-0.351127 0.258509 0.876938
-0.335003 0.260558 0.883889
-0.343830 0.275189 0.933519
-0.327521 0.269975 0.915834
-0.319410 0.271406 0.920689
-0.309109 0.271008 0.919338
-0.246436 0.277950 0.942887
-0.237431 0.279219 0.947193
-0.233630 0.286994 0.973567
-0.212358 0.286390 0.971519
-0.194195 0.275369 0.934133
-0.181997 0.272070 0.922940
-0.412276 0.306358 1.002869
-0.348583 0.265947 0.870585
-0.364529 0.285745 0.935394
-0.338229 0.272611 0.892400
-0.339070 0.281225 0.920597
-0.351872 0.300571 0.983926
-0.337358 0.297057 0.972424
-0.315694 0.286823 0.938922
-0.290898 0.272979 0.893602
-0.251605 0.306622 1.003735
-0.237025 0.301729 0.987716
-0.212465 0.296931 0.972012
-0.198021 0.290982 0.952536
-0.188710 0.292340 0.956981
0.404435 0.299557 0.980607
