3
-0.400731 -0.296476 0.974786
-0.406234 -0.308575 1.014568
-0.215216 -0.299460 0.984598
-0.152996 -0.301356 0.990833
-0.144577 -0.305966 1.005988
-0.134657 -0.307884 1.012294
-0.123107 -0.306085 1.006380
-0.111191 -0.302945 0.996056
-0.098997 -0.298302 0.980790
0.162819 -0.317951 1.045395
0.160752 -0.293743 0.965801
0.174399 -0.299440 0.984532
0.185393 -0.300192 0.987005
0.196575 -0.301151 0.990157
0.228050 -0.300761 0.988876
0.244918 -0.308692 1.014952
0.284091 -0.304144 1.000000
-0.406581 -0.290226 0.989016
-0.388331 -0.284603 0.969855
-0.224372 -0.301220 1.026483
-0.153304 -0.291344 0.992825
-0.144739 -0.295537 1.007115
-0.134931 -0.297662 1.014358
0.164513 -0.309962 1.056272
0.167296 -0.294952 1.005120
0.186053 -0.308216 1.050320
0.200320 -0.296095 1.009017
0.236628 -0.301101 1.026075
0.248555 -0.302260 1.030023
0.250963 -0.292235 0.995863
0.274470 -0.294603 1.003930
0.286222 -0.295650 1.007500
0.300451 -0.299088 1.019217
0.313926 -0.301561 1.027643
0.316057 -0.293338 0.999621
0.327175 -0.293721 1.000927
0.343887 -0.298943 1.018722
0.356361 -0.300273 1.023255
0.365367 -0.298689 1.017856
0.383248 -0.304242 1.036779
0.389851 -0.300781 1.024986
0.400924 -0.300864 1.025269
0.413973 -0.302386 1.030454
0.428502 -0.304882 1.038962
-0.383702 -0.270962 0.958295
-0.236290 -0.305660 1.081010
0.049873 -0.288987 1.022046
0.059802 -0.284230 1.005219
0.071658 -0.288678 1.020952
0.081689 -0.285575 1.009977
0.173565 -0.315099 1.114392
0.175987 -0.280915 0.993496
0.193693 -0.291573 1.031190
0.198870 -0.268761 0.950510
0.229653 -0.295268 1.044257
0.237272 -0.290916 1.028867
0.245664 -0.287856 1.018044
0.248493 -0.278813 0.986063
0.272153 -0.281469 0.995454
0.282388 -0.281059 0.994005
0.302382 -0.290040 1.025767
0.340507 -0.315173 1.114656
0.332412 -0.297273 1.051349
0.339462 -0.284341 1.005614
0.352621 -0.286293 1.012515
0.360874 -0.284264 1.005340
0.375382 -0.287137 1.015501
0.385200 -0.286361 1.012758
0.401741 -0.290490 1.027359
0.410491 -0.288915 1.021789
0.426130 -0.292144 1.033209
-0.376144 -0.255577 0.939418
-0.217081 -0.284090 1.044223
-0.037196 -0.275252 1.011737
-0.026352 -0.275009 1.010844
-0.015467 -0.273700 1.006031
-0.004710 -0.273842 1.006554
0.005999 -0.271284 0.997152
0.016859 -0.274469 1.008858
0.027627 -0.274251 1.008059
0.039333 -0.280851 1.032317
0.049575 -0.276395 1.015939
0.061353 -0.280571 1.031289
0.071886 -0.278643 1.024203
0.082544 -0.277646 1.020538
0.092201 -0.273912 1.006813
0.144623 -0.271252 0.997033
0.167838 -0.293176 1.077620
0.170347 -0.278438 1.023450
0.179334 -0.275430 1.012390
0.192265 -0.278477 1.023590
0.199506 -0.273397 1.004917
0.252032 -0.284147 1.044430
0.256643 -0.277065 1.018402
0.268147 -0.277700 1.020733
0.280048 -0.278678 1.024331
0.312300 -0.288222 1.059411
0.326764 -0.281169 1.033485
0.332581 -0.276810 1.017465
0.338736 -0.273001 1.003463
0.368868 -0.279570 1.027609
0.369537 -0.271974 0.999687
0.392035 -0.280419 1.030728
0.398884 -0.277514 1.020051
0.410363 -0.277900 1.021469
-0.379865 -0.247959 0.948712
-0.371983 -0.249477 0.954521
-0.366612 -0.252814 0.967287
-0.366472 -0.260055 0.994994
-0.357451 -0.261240 0.999527
-0.369132 -0.278094 1.064010
-0.342250 -0.266044 1.017906
-0.195295 -0.245531 0.939424
-0.189389 -0.265416 1.015503
-0.176563 -0.262495 1.004327
-0.166503 -0.263573 1.008453
-0.146301 -0.247635 0.947474
-0.142473 -0.259103 0.991349
-0.089485 -0.259175 0.991625
-0.078736 -0.258704 0.989824
-0.070105 -0.266128 1.018229
-0.059037 -0.265329 1.015172
-0.047482 -0.261483 1.000456
-0.037230 -0.264674 1.012666
-0.026422 -0.264897 1.013519
-0.015538 -0.264144 1.010638
-0.004757 -0.265733 1.016716
0.006083 -0.264289 1.011194
0.016887 -0.264107 1.010495
0.027886 -0.265938 1.017502
0.038852 -0.266513 1.019702
0.049274 -0.263921 1.009787
0.060256 -0.264721 1.012846
0.072699 -0.270719 1.035793
0.086104 -0.278238 1.064563
0.094849 -0.270700 1.035720
0.103053 -0.263358 1.007630
0.132215 -0.279439 1.069157
0.144716 -0.260756 0.997674
0.157290 -0.263950 1.009894
0.167039 -0.262298 1.003574
0.178571 -0.263476 1.008083
0.190205 -0.264662 1.012621
0.202341 -0.266382 1.019200
0.211051 -0.263646 1.008731
0.222209 -0.264084 1.010407
0.245163 -0.277851 1.063082
0.248950 -0.269638 1.031660
0.257523 -0.267086 1.021894
0.295006 -0.293505 1.122976
0.279882 -0.267565 1.023726
0.290391 -0.267160 1.022177
0.323791 -0.287080 1.098394
0.325812 -0.278758 1.066552
0.327164 -0.270446 1.034750
0.329067 -0.263119 1.006717
0.341843 -0.264674 1.012667
0.347616 -0.260879 0.998146
0.376694 -0.274278 1.049411
0.375206 -0.265290 1.015023
0.389616 -0.267732 1.024367
0.405846 -0.271258 1.037856
0.408967 -0.266066 1.017993
0.422918 -0.268008 1.025421
-0.364515 -0.248082 0.989682
-0.355636 -0.249278 0.994451
-0.355240 -0.256677 1.023969
-0.341418 -0.254536 1.015431
-0.207092 -0.249709 0.996173
-0.201322 -0.255918 1.020944
-0.189028 -0.254069 1.013567
-0.177350 -0.252875 1.008804
-0.169716 -0.257667 1.027918
-0.152332 -0.247292 0.986529
-0.142985 -0.249393 0.994912
-0.134448 -0.253356 1.010721
-0.025689 -0.247007 0.985392
-0.015284 -0.249192 0.994110
-0.004659 -0.249570 0.995617
0.006039 -0.251645 1.003895
0.016820 -0.252304 1.006523
0.027615 -0.252578 1.007617
0.038515 -0.253388 1.010849
0.048999 -0.251707 1.004143
0.059703 -0.251556 1.003540
0.068976 -0.246343 0.982746
0.079977 -0.247863 0.988810
0.092554 -0.253342 1.010665
0.102063 -0.250154 0.997950
0.112772 -0.250234 0.998268
0.136510 -0.254684 1.016018
0.151153 -0.261210 1.042053
0.158315 -0.254799 1.016479
0.163333 -0.245984 0.981312
0.182625 -0.258431 1.030968
0.191854 -0.256033 1.021399
0.201830 -0.254836 1.016627
0.215760 -0.258498 1.031235
0.222683 -0.253818 1.012566
0.234065 -0.254419 1.014961
0.247369 -0.256963 1.025109
0.255232 -0.253878 1.012802
0.277228 -0.264531 1.055301
0.279465 -0.256233 1.022200
0.291312 -0.257040 1.025417
0.307825 -0.261756 1.044231
0.321159 -0.263533 1.051320
0.325366 -0.257954 1.029066
0.327351 -0.251036 1.001466
0.348438 -0.258741 1.032205
0.357919 -0.257619 1.027729
0.368424 -0.257280 1.026374
0.373265 -0.253118 1.009773
0.387488 -0.255374 1.018773
0.397936 -0.255087 1.017627
0.403119 -0.251530 1.003438
0.417431 -0.253706 1.012119
-0.348713 -0.248883 1.037128
-0.191735 -0.221327 0.922300
-0.189273 -0.230336 0.959841
-0.182829 -0.235253 0.980332
-0.175736 -0.239884 0.999626
-0.165080 -0.239933 0.999834
-0.151932 -0.236120 0.983941
-0.140041 -0.233836 0.974427
-0.132490 -0.239015 0.996005
-0.122380 -0.240079 1.000440
-0.112314 -0.241441 1.006117
0.027388 -0.239813 0.999332
0.038088 -0.239887 0.999639
0.049560 -0.243725 1.015633
0.060758 -0.245078 1.021274
0.091965 -0.240988 1.004228
0.102639 -0.240832 1.003577
0.113645 -0.241412 1.005994
0.124079 -0.240781 1.003367
0.135684 -0.242341 1.009865
0.146020 -0.241573 1.006666
0.154143 -0.237500 0.989692
0.167116 -0.240942 1.004037
0.179261 -0.242848 1.011980
0.191407 -0.244538 1.019023
0.199353 -0.240968 1.004146
0.213398 -0.244760 1.019948
0.222874 -0.243197 1.013433
0.233236 -0.242701 1.011367
0.253814 -0.252408 1.051816
0.257852 -0.245540 1.023199
0.271069 -0.247618 1.031855
0.278376 -0.244344 1.018215
0.291573 -0.246293 1.026335
0.298987 -0.243393 1.014251
0.310439 -0.243868 1.016230
0.313105 -0.237642 0.990287
0.336959 -0.247379 1.030859
0.341557 -0.242810 1.011820
0.349828 -0.241052 1.004495
0.364556 -0.243716 1.015598
0.373394 -0.242402 1.010123
0.384255 -0.242439 1.010273
0.399782 -0.245337 1.022350
0.406443 -0.242784 1.011712
0.417566 -0.242960 1.012446
-0.197587 -0.229737 1.002000
-0.186340 -0.229084 0.999154
-0.174214 -0.227207 0.990968
-0.165654 -0.230038 1.003313
-0.154652 -0.229635 1.001558
-0.145003 -0.231331 1.008952
-0.133333 -0.229815 1.002340
-0.122566 -0.229728 1.001963
-0.111307 -0.228612 0.997097
-0.100241 -0.227701 0.993120
-0.090359 -0.229580 1.001315
-0.076306 -0.219941 0.959278
-0.049319 -0.238257 1.039163
-0.039201 -0.244474 1.066277
0.026841 -0.224548 0.979368
0.037869 -0.227881 0.993905
0.147117 -0.232540 1.014228
0.156736 -0.230732 1.006341
0.178645 -0.231227 1.008502
0.189926 -0.231832 1.011138
0.199241 -0.230099 1.003582
0.211636 -0.231921 1.011526
0.224403 -0.233952 1.020386
0.233193 -0.231841 1.011179
0.241304 -0.229272 0.999976
0.255141 -0.232131 1.012441
0.270971 -0.236496 1.031482
0.277534 -0.232749 1.015137
0.287708 -0.232198 1.012733
0.296592 -0.230683 1.006126
0.302952 -0.227379 0.991719
0.322863 -0.234127 1.021149
0.330088 -0.231534 1.009839
0.339674 -0.230709 1.006243
0.353747 -0.232889 1.015749
0.357002 -0.228029 0.994553
0.404875 -0.231068 1.007809
0.417555 -0.232126 1.012420
-0.208785 -0.219527 1.004318
-0.198176 -0.219674 1.004990
-0.181644 -0.212895 0.973977
-0.175699 -0.218455 0.999416
-0.156507 -0.221548 1.013566
-0.143448 -0.218174 0.998130
-0.131585 -0.216223 0.989202
-0.121223 -0.216611 0.990979
-0.110490 -0.216349 0.989779
-0.100609 -0.217875 0.996761
-0.090372 -0.218900 1.001453
-0.077552 -0.213104 0.974933
-0.069245 -0.219835 1.005730
-0.059165 -0.222379 1.017369
-0.048211 -0.222044 1.015835
-0.037012 -0.220056 1.006739
-0.025937 -0.217474 0.994927
-0.015275 -0.217170 0.993538
-0.004659 -0.217644 0.995704
0.005965 -0.216720 0.991479
0.026945 -0.214905 0.983174
0.037806 -0.216890 0.992254
0.046706 -0.209218 0.957155
0.057663 -0.211862 0.969251
0.274319 -0.219321 1.003376
0.290889 -0.223813 1.023928
0.295687 -0.219251 1.003055
0.312197 -0.223388 1.021983
0.324201 -0.224130 1.025380
-0.208189 -0.208189 1.001451
-0.200176 -0.211033 1.015128
-0.182355 -0.203270 0.977788
-0.175365 -0.207371 0.997513
-0.165635 -0.208552 1.003196
-0.155450 -0.209285 1.006722
-0.145598 -0.210609 1.013091
-0.133078 -0.207977 1.000429
-0.123149 -0.209287 1.006730
-0.112739 -0.209951 1.009924
-0.102305 -0.210707 1.013564
-0.090749 -0.209058 1.005629
-0.080153 -0.209475 1.007634
-0.069469 -0.209756 1.008985
-0.058956 -0.210751 1.013772
-0.048211 -0.211177 1.015822
-0.037067 -0.209597 1.008220
-0.025974 -0.207125 0.996333
-0.015104 -0.204227 0.982389
-0.004637 -0.206026 0.991043
0.005937 -0.205165 0.986905
0.016467 -0.204851 0.985392
0.027186 -0.206218 0.991970
0.037396 -0.204038 0.981481
0.048127 -0.205032 0.986265
0.296872 -0.209358 1.007074
0.294528 -0.200434 0.964144
0.340517 -0.209704 1.008738
0.344820 -0.205833 0.990115
0.355402 -0.205829 0.990095
0.365156 -0.205359 0.987836
-0.207259 -0.196596 0.996974
-0.162776 -0.194408 0.985879
-0.155579 -0.198683 1.007557
-0.145782 -0.200027 1.014374
-0.134514 -0.199405 1.011221
-0.124077 -0.200014 1.014309
-0.111163 -0.196366 0.995807
-0.101648 -0.198585 1.007059
-0.090392 -0.197523 1.001676
-0.079933 -0.198154 1.004877
-0.069610 -0.199368 1.011034
-0.059210 -0.200770 1.018144
-0.048371 -0.200978 1.019195
-0.037294 -0.200031 1.014395
0.016254 -0.191799 0.972646
0.026852 -0.193204 0.979771
0.037196 -0.192503 0.976219
0.048578 -0.196309 0.995518
0.059867 -0.198434 1.006296
0.069344 -0.194823 0.987983
0.080406 -0.196030 0.994105
0.263334 -0.197668 1.002410
0.268549 -0.193696 0.982271
0.281210 -0.195193 0.989859
0.293633 -0.196421 0.996088
0.305223 -0.197026 0.999155
0.318343 -0.198544 1.006851
0.330563 -0.199419 1.011293
0.352510 -0.205922 1.044269
0.363157 -0.205626 1.042769
-0.112412 -0.187803 1.006998
-0.101773 -0.188045 1.008297
-0.091112 -0.188299 1.009660
-0.078226 -0.183404 0.983415
-0.067576 -0.183046 0.981493
-0.057192 -0.183409 0.983442
-0.046999 -0.184686 0.990287
-0.037362 -0.189525 1.016234
0.048240 -0.184369 0.988588
0.058696 -0.184003 0.986628
0.069120 -0.183661 0.984793
0.079264 -0.182765 0.979989
0.089935 -0.183152 0.982064
0.101795 -0.185626 0.995329
0.112648 -0.185969 0.997168
0.121116 -0.182657 0.979406
0.212129 -0.189086 1.013880
0.221812 -0.188102 1.008605
0.228072 -0.184441 0.988974
0.246608 -0.190592 1.021955
0.253294 -0.187451 1.005113
0.264413 -0.187713 1.006520
0.269149 -0.183600 0.984467
0.276166 -0.181295 0.972103
0.292115 -0.184808 0.990939
0.326488 -0.186279 0.998828
0.346521 -0.191444 1.026526
0.359856 -0.192706 1.033290
-0.118974 -0.170984 0.972595
-0.112932 -0.177851 1.011655
-0.102470 -0.178475 1.015202
-0.089587 -0.174528 0.992753
-0.079484 -0.175666 0.999226
-0.069183 -0.176652 1.004834
-0.057486 -0.173781 0.988501
-0.047710 -0.176730 1.005276
-0.036647 -0.175238 0.996791
-0.025989 -0.175261 0.996924
-0.015360 -0.175639 0.999072
-0.004717 -0.177229 1.008114
0.089376 -0.171576 0.975961
0.098862 -0.169940 0.966654
0.107870 -0.167869 0.954874
0.118210 -0.168050 0.955905
0.133436 -0.174596 0.993137
0.146364 -0.177390 1.009033
0.157705 -0.178011 1.012564
0.169817 -0.179365 1.020268
0.181904 -0.180531 1.026900
0.189448 -0.177313 1.008592
0.200235 -0.177313 1.008592
0.209930 -0.176395 1.003370
0.228009 -0.182268 1.036781
0.236913 -0.172599 0.981779
0.240529 -0.167796 0.954460
0.269536 -0.180377 1.026021
0.281211 -0.180828 1.028586
0.282659 -0.174916 0.994960
0.299958 -0.178887 1.017545
0.307725 -0.177093 1.007343
0.315235 -0.175279 0.997024
-0.278689 -0.162733 0.985623
-0.258423 -0.156831 0.949878
-0.120581 -0.162751 0.985733
-0.113025 -0.167169 1.012492
-0.102810 -0.168173 1.018572
-0.089144 -0.163101 0.987849
-0.079245 -0.164483 0.996223
-0.069139 -0.165799 1.004193
-0.058163 -0.165130 1.000140
-0.047988 -0.166945 1.011132
-0.014958 -0.160637 0.972926
-0.004574 -0.161400 0.977548
0.006121 -0.167974 1.017365
0.016849 -0.166471 1.008262
0.025604 -0.154246 0.934219
0.038035 -0.164818 0.998252
0.092932 -0.150028 0.908670
0.108942 -0.159224 0.964366
0.116111 -0.155024 0.938933
0.123601 -0.151888 0.919938
0.141290 -0.160824 0.974058
0.153279 -0.162489 0.984143
0.167943 -0.166594 1.009008
0.180204 -0.167964 1.017302
0.191107 -0.167984 1.017425
0.278436 -0.168151 1.018435
0.277112 -0.161051 0.975434
0.290277 -0.162581 0.984702
0.304140 -0.164382 0.995610
0.316113 -0.165074 0.999798
-0.320666 -0.152102 0.985043
-0.270670 -0.147813 0.957262
-0.253077 -0.143638 0.930229
-0.130102 -0.164227 1.063568
-0.110447 -0.152775 0.989398
-0.097604 -0.149314 0.966988
-0.086231 -0.147550 0.955564
-0.077824 -0.151070 0.978358
-0.069058 -0.154879 1.003023
-0.055764 -0.148064 0.958888
-0.046242 -0.150450 0.974343
-0.036529 -0.153423 0.993598
-0.025916 -0.153504 0.994120
0.005821 -0.149401 0.967551
0.016418 -0.151703 0.982459
0.027013 -0.152194 0.985640
0.038046 -0.154188 0.998550
0.049427 -0.156406 1.012918
0.058522 -0.151893 0.983691
0.083776 -0.159936 1.035779
0.089292 -0.150558 0.975040
0.278588 -0.151421 0.980631
0.279867 -0.146597 0.949389
0.299382 -0.151329 0.980035
0.313707 -0.153206 0.992189
0.297182 -0.140387 0.909170
-0.320493 -0.141491 0.984514
-0.270660 -0.137569 0.957226
-0.264907 -0.139939 0.973713
-0.033543 -0.131123 0.912374
-0.024205 -0.133440 0.928494
-0.015196 -0.142052 0.988417
-0.004675 -0.143580 0.999050
0.025915 -0.135898 0.945596
0.036236 -0.136680 0.951036
0.047507 -0.139919 0.973574
0.060475 -0.146091 1.016520
0.067528 -0.138271 0.962111
0.079184 -0.140699 0.979005
0.086840 -0.136282 0.948270
0.100824 -0.128267 0.892502
0.120507 -0.140049 0.974480
0.283586 -0.143461 0.998222
0.292703 -0.142701 0.992933
0.297791 -0.140099 0.974826
0.317648 -0.144385 1.004653
-0.261380 -0.127800 0.960747
-0.025334 -0.129270 0.971801
-0.014492 -0.125389 0.942621
-0.004466 -0.126959 0.954428
0.005673 -0.125444 0.943036
0.016420 -0.130702 0.982566
0.045265 -0.123392 0.927613
0.056940 -0.127315 0.957099
0.070309 -0.133253 1.001738
0.076856 -0.126399 0.950218
0.087616 -0.127267 0.956744
0.100769 -0.131065 0.985294
0.108958 -0.128300 0.964506
0.119381 -0.128415 0.965374
0.140183 -0.128555 0.966424
0.154237 -0.131731 0.990297
0.277526 -0.129948 0.976893
0.276660 -0.124842 0.938510
0.298497 -0.129980 0.977137
0.329515 -0.138633 1.042188
-0.300704 -0.112996 0.923723
-0.261713 -0.117674 0.961972
-0.260084 -0.121727 0.995102
-0.004477 -0.117031 0.956716
0.005624 -0.114362 0.934897
0.015889 -0.116306 0.950785
0.025299 -0.112919 0.923096
0.035167 -0.112906 0.922991
0.071875 -0.125268 1.024051
0.079278 -0.119899 0.980159
0.091022 -0.121583 0.993928
0.103284 -0.111840 0.914273
0.113822 -0.112591 0.920417
0.128055 -0.116587 0.953086
0.140123 -0.118168 0.966007
0.155794 -0.122362 1.000289
0.172899 -0.127071 1.038786
0.277723 -0.119584 0.977585
0.274323 -0.113835 0.930582
0.279146 -0.111780 0.913790
0.288857 -0.111757 0.913594
-0.305522 -0.104768 0.938524
-0.306993 -0.108849 0.975079
-0.260894 -0.107050 0.958961
-0.252120 -0.107683 0.964633
0.005817 -0.107930 0.966847
0.015933 -0.106430 0.953410
0.025302 -0.103059 0.923209
0.034676 -0.101594 0.910091
0.044776 -0.102433 0.917600
0.058566 -0.109893 0.984431
0.066229 -0.105335 0.943602
0.073389 -0.101288 0.907349
0.085937 -0.104755 0.938407
0.101607 -0.110905 0.993495
0.112909 -0.111573 0.999479
0.142177 -0.109417 0.980170
0.149972 -0.107490 0.962909
0.160288 -0.107502 0.963016
0.174892 -0.110215 0.987317
0.184246 -0.109498 0.980896
0.194560 -0.109399 0.980008
0.263586 -0.103574 0.927824
0.272266 -0.103103 0.923605
0.279123 -0.101999 0.913715
0.295169 -0.104214 0.933557
-0.271965 -0.100901 0.999654
-0.247750 -0.095678 0.947911
0.043551 -0.090084 0.892488
0.054367 -0.092241 0.913860
0.065537 -0.094248 0.933740
0.072851 -0.090913 0.900700
0.083007 -0.091489 0.906408
0.096041 -0.094786 0.939068
0.105788 -0.094521 0.936443
0.119298 -0.097373 0.964698
0.127803 -0.096011 0.951211
0.162002 -0.098242 0.973313
0.172275 -0.098164 0.972539
0.185292 -0.099570 0.986464
0.196408 -0.099857 0.989316
0.275786 -0.094430 0.935547
0.288534 -0.095336 0.944523
0.289677 -0.092476 0.916187
-0.271010 -0.089893 0.996145
-0.250858 -0.086613 0.959803
0.042983 -0.079489 0.880854
0.062436 -0.080274 0.889558
0.073876 -0.082424 0.913375
0.082879 -0.081669 0.905017
0.090727 -0.080053 0.887107
0.100996 -0.080677 0.894021
0.111173 -0.081126 0.898996
0.124291 -0.083479 0.925070
0.136568 -0.084962 0.941500
0.147096 -0.085227 0.944444
0.282247 -0.086402 0.957462
0.290786 -0.085900 0.951894
-0.297166 -0.075080 0.943866
-0.265284 -0.077565 0.975099
-0.251161 -0.076440 0.960965
0.071628 -0.070444 0.885578
0.081625 -0.070901 0.891324
0.094540 -0.073531 0.924388
0.106756 -0.075171 0.945009
0.110603 -0.071145 0.894388
0.124808 -0.073891 0.928916
0.137003 -0.075131 0.944503
0.144531 -0.073816 0.927979
0.264548 -0.074073 0.931210
0.280346 -0.075649 0.951015
-0.297348 -0.065025 0.944444
-0.261693 -0.066227 0.961899
-0.254155 -0.066951 0.972421
0.081593 -0.061344 0.890975
0.092438 -0.062229 0.903837
0.104571 -0.063732 0.925667
0.110780 -0.061677 0.895819
0.122900 -0.062978 0.914715
0.140222 -0.066557 0.966693
0.239261 -0.062707 0.910774
0.249125 -0.062738 0.911226
0.261339 -0.063336 0.919913
0.271332 -0.063372 0.920437
0.281496 -0.063445 0.921485
0.295225 -0.064288 0.933736
0.303695 -0.063968 0.929096
0.308209 -0.062862 0.913031
0.320664 -0.063394 0.920754
0.329219 -0.063146 0.917155
-0.313149 -0.057843 0.994629
-0.251358 -0.053730 0.923910
-0.251065 -0.055864 0.960597
0.075894 -0.054569 0.938328
0.094528 -0.053751 0.924271
0.098235 -0.050571 0.869583
0.108775 -0.051154 0.879611
0.121393 -0.052543 0.903500
0.134767 -0.054031 0.929087
0.146772 -0.054803 0.942364
0.216361 -0.052142 0.896608
0.224819 -0.051881 0.892121
0.240283 -0.053192 0.914665
0.249945 -0.053167 0.914224
0.259807 -0.053184 0.914521
0.268177 -0.052906 0.909735
-0.366351 -0.045875 0.966599
-0.358266 -0.046165 0.972715
-0.291381 -0.045468 0.958037
-0.257413 -0.046742 0.984883
-0.242394 -0.045893 0.966991
0.075968 -0.044576 0.939245
0.097700 -0.041045 0.864844
0.110129 -0.042266 0.890560
0.120227 -0.042468 0.894827
0.127375 -0.041676 0.878125
0.220112 -0.043291 0.912154
0.232395 -0.043767 0.922182
0.234964 -0.042449 0.894417
0.238534 -0.041408 0.872486
-0.365834 -0.035486 0.965233
-0.361692 -0.036104 0.982016
-0.351642 -0.036150 0.983282
-0.259435 -0.036493 0.992622
-0.243533 -0.035718 0.971533
0.119286 -0.032641 0.887822
0.127811 -0.032395 0.881131
0.215620 -0.032851 0.893539
0.230433 -0.033617 0.914396
-0.369530 -0.024720 0.948228
-0.354507 -0.024384 0.935347
-0.355450 -0.025159 0.965070
-0.346344 -0.025248 0.968469
-0.337105 -0.025332 0.971693
-0.262980 -0.026231 1.006185
-0.237430 -0.024693 0.947186
0.120098 -0.023303 0.893864
0.129887 -0.023344 0.895442
-0.376294 -0.014845 0.965584
-0.356725 -0.014470 0.941200
-0.360880 -0.015064 0.979811
-0.350472 -0.015067 0.980011
-0.298351 -0.014569 0.947629
-0.293065 -0.014814 0.963573
-0.257191 -0.015129 0.984036
-0.247526 -0.015182 0.987463
0.120831 -0.013826 0.899321
0.131201 -0.013906 0.904497
-0.375391 -0.004507 0.963266
-0.366343 -0.004523 0.966577
-0.368362 -0.004680 1.000126
-0.351133 -0.004594 0.981859
-0.307338 -0.004568 0.976174
-0.290554 -0.004470 0.955315
-0.289441 -0.004615 0.986341
-0.258873 -0.004635 0.990471
-0.252957 -0.004722 1.009129
-0.362846 0.005601 0.931076
-0.356815 0.005664 0.941437
-0.362697 0.005924 0.984744
-0.352842 0.005936 0.986639
-0.341998 0.005931 0.985799
-0.317034 0.006058 1.006969
-0.318525 0.006300 1.047281
-0.280523 0.005751 0.955950
-0.269970 0.005744 0.954787
-0.268241 0.006174 1.026312
-0.255085 0.006122 1.017619
-0.362991 0.015566 0.931448
-0.355254 0.015664 0.937319
-0.351256 0.015937 0.953682
-0.341904 0.015977 0.956053
-0.316336 0.016791 1.004754
-0.301552 0.016569 0.991476
-0.266470 0.017038 1.019536
-0.254207 0.016947 1.014116
-0.247164 0.017212 1.029963
-0.376106 0.026450 0.965101
-0.359048 0.025963 0.947329
-0.343013 0.025524 0.931302
-0.342461 0.026245 0.957611
-0.287866 0.025940 0.946478
-0.287877 0.026886 0.981011
-0.255064 0.027887 1.017535
-0.241967 0.027634 1.008309
-0.388165 0.035976 0.944219
-0.403075 0.038356 1.006679
-0.399959 0.039104 1.026310
-0.345457 0.035737 0.937938
-0.347008 0.036971 0.970326
-0.251803 0.038274 1.004526
-0.236031 0.037476 0.983571
-0.373093 0.044286 0.907556
-0.369408 0.045020 0.922596
-0.369075 0.046213 0.947059
-0.360776 0.046449 0.951888
-0.347074 0.045983 0.942328
-0.332764 0.045405 0.930496
-0.289937 0.048213 0.988033
-0.258742 0.050368 1.032207
-0.247586 0.050345 1.031723
-0.381345 0.055187 0.927631
-0.368324 0.054726 0.919887
-0.353790 0.055533 0.933456
-0.338836 0.054730 0.919960
-0.327783 0.054528 0.916567
-0.318752 0.054661 0.918792
-0.278424 0.054461 0.915433
-0.287173 0.058220 0.978612
-0.250488 0.059449 0.999279
-0.249466 0.061845 1.039558
-0.385445 0.065808 0.937604
-0.374476 0.065643 0.935251
-0.361911 0.065181 0.928676
-0.346914 0.064243 0.915315
-0.337805 0.064373 0.917161
-0.325440 0.063871 0.910016
-0.282055 0.065090 0.927371
-0.248129 0.069476 0.989868
-0.239116 0.069936 0.996427
-0.411096 0.080882 1.000000
-0.377290 0.076214 0.942281
-0.391143 0.081181 1.003687
-0.350071 0.074707 0.923645
-0.343617 0.075459 0.932942
-0.331301 0.074930 0.926404
-0.316469 0.073782 0.912211
-0.288462 0.076712 0.948439
-0.271343 0.074789 0.924667
-0.257289 0.073598 0.909938
-0.246633 0.073323 0.906544
-0.241637 0.077968 0.963969
-0.242397 0.081699 1.010101
-0.411096 0.091578 1.000000
-0.379427 0.086780 0.947618
-0.379170 0.089102 0.972964
-0.372529 0.090011 0.982897
-0.339897 0.084512 0.922842
-0.325433 0.083335 0.909997
-0.314293 0.082964 0.905940
-0.273086 0.085223 0.930606
-0.257094 0.083267 0.909250
-0.259114 0.094663 1.033692
-0.242238 0.092442 1.009439
-0.229604 0.091708 1.001420
-0.393188 0.100430 0.981984
-0.366368 0.096148 0.940114
-0.361324 0.097500 0.953333
-0.339094 0.094158 0.920661
-0.333167 0.095280 0.931623
-0.325594 0.095984 0.938514
-0.266299 0.092810 0.907480
-0.258362 0.093450 0.913734
-0.230852 0.098385 0.961988
-0.228478 0.101916 0.996512
-0.376024 0.103330 0.914686
-0.368502 0.103968 0.920332
-0.365734 0.106019 0.938487
-0.355472 0.105952 0.937893
-0.333291 0.102225 0.904906
-0.325267 0.102748 0.909532
-0.319942 0.104182 0.922223
-0.273983 0.105474 0.933663
-0.256235 0.102373 0.906211
-0.225330 0.106075 0.938980
-0.231324 0.113976 1.008922
-0.377556 0.113574 0.918412
-0.372286 0.114980 0.929783
-0.374064 0.118699 0.959861
-0.359475 0.117289 0.948457
-0.343169 0.115220 0.931727
-0.330098 0.114146 0.923039
-0.325021 0.115855 0.936861
-0.275072 0.115919 0.937374
-0.255729 0.111843 0.904421
-0.232962 0.120050 0.970784
-0.228163 0.123062 0.995137
-0.386700 0.126385 0.940654
-0.373538 0.125344 0.932910
-0.357638 0.126782 0.943609
-0.343479 0.125298 0.932568
-0.330967 0.124345 0.925471
-0.284331 0.130184 0.968928
-0.261598 0.124305 0.925178
-0.246169 0.121572 0.904836
-0.220974 0.123721 0.920829
-0.224714 0.131684 0.980093
-0.388780 0.137179 0.945715
-0.394167 0.142795 0.984430
-0.366854 0.136548 0.941360
-0.358436 0.137179 0.945715
-0.343644 0.135337 0.933017
-0.339803 0.137827 0.950179
-0.276204 0.136529 0.941232
-0.257330 0.132011 0.910083
-0.250010 0.133298 0.918957
-0.222065 0.134229 0.925373
-0.231304 0.146335 1.008838
-0.405716 0.153710 0.986911
-0.393372 0.153015 0.982445
-0.365367 0.146021 0.937545
-0.358549 0.147340 0.946012
-0.352877 0.149220 0.958084
-0.341821 0.148868 0.955821
-0.308952 0.138701 0.890545
-0.257632 0.141911 0.911152
-0.250213 0.143242 0.919701
-0.228952 0.148596 0.954074
-0.230988 0.156910 1.007457
-0.221143 0.157573 1.011711
-0.384079 0.155505 0.934279
-0.386068 0.160486 0.964203
-0.363780 0.155371 0.933474
-0.342935 0.154974 0.931089
-0.326434 0.151929 0.912796
-0.314310 0.150796 0.905987
-0.238254 0.165251 0.992835
-0.219855 0.159603 0.958900
-0.223104 0.169886 1.020682
-0.384593 0.165719 0.935530
-0.375605 0.166169 0.938073
-0.377984 0.171811 0.969921
-0.358915 0.167747 0.946979
-0.349777 0.168223 0.949668
-0.324942 0.160953 0.908624
-0.331399 0.169212 0.955247
-0.216758 0.167466 0.945391
-0.226685 0.183705 1.037069
-0.387017 0.176832 0.941426
-0.421603 0.203208 1.081850
-0.353518 0.175200 0.932739
-0.338852 0.172808 0.920004
-0.326858 0.171677 0.913980
-0.314852 0.170469 0.907549
-0.306605 0.171284 0.911890
-0.214820 0.175990 0.936942
-0.211950 0.182134 0.969653
-0.385892 0.186358 0.938691
-0.369473 0.183195 0.922758
-0.370682 0.188838 0.951185
-0.351274 0.184001 0.926818
-0.346422 0.186728 0.940557
-0.334213 0.185535 0.934546
-0.311495 0.183925 0.926435
-0.300670 0.183365 0.923619
-0.211267 0.182934 0.921445
-0.218290 0.198263 0.998659
-0.381517 0.194170 0.928047
-0.386861 0.202149 0.966183
-0.364418 0.207011 0.989418
-0.338275 0.197907 0.945907
-0.324510 0.195706 0.935388
-0.312289 0.194327 0.928796
-0.302140 0.194189 0.928135
-0.214644 0.195871 0.936173
-0.206733 0.197882 0.945789
-0.392795 0.210129 0.955481
-0.371597 0.204099 0.928062
-0.366986 0.207099 0.941701
-0.355449 0.212237 0.965067
-0.331542 0.203883 0.927078
-0.317733 0.201415 0.915856
-0.265020 0.214230 0.974127
-0.239281 0.201338 0.915509
-0.229692 0.201517 0.916318
-0.210414 0.201826 0.917726
-0.205804 0.207063 0.941539
-0.194947 0.206231 0.937754
-0.412656 0.231490 1.003793
-0.411496 0.237005 1.027709
-0.368196 0.217886 0.944804
-0.360928 0.225989 0.979943
-0.338492 0.218280 0.946513
-0.323649 0.215143 0.932909
-0.262949 0.222893 0.966517
-0.241898 0.213440 0.925524
-0.223052 0.224353 0.972847
-0.206556 0.217926 0.944978
-0.192027 0.213021 0.923706
-0.397761 0.233483 0.967562
-0.383976 0.231411 0.958980
-0.359030 0.222315 0.921285
-0.365122 0.239218 0.991329
-0.333861 0.225278 0.933562
-0.324259 0.225545 0.934667
-0.333448 0.239314 0.991726
-0.319643 0.236943 0.981902
-0.256653 0.219035 0.907689
-0.211236 0.222321 0.921310
-0.201849 0.222836 0.923443
-0.186908 0.216957 0.899081
-0.381172 0.233661 0.927208
-0.362219 0.227974 0.904639
-0.368051 0.238002 0.944432
-0.350254 0.239648 0.950962
-0.336292 0.236976 0.940360
-0.331405 0.248389 0.985650
-0.323951 0.250779 0.995135
-0.254511 0.226834 0.900115
-0.245205 0.227131 0.901295
-0.236215 0.227758 0.903781
-0.199624 0.230147 0.913263
-0.192454 0.233296 0.925759
-0.376346 0.240494 0.915469
-0.358590 0.235269 0.895578
-0.372017 0.250776 0.954610
-0.358850 0.248727 0.946807
-0.350775 0.250190 0.952377
-0.330063 0.242457 0.922941
-0.313930 0.245277 0.933675
-0.240496 0.232223 0.883984
-0.231746 0.232932 0.886681
-0.221242 0.242195 0.921944
-0.201547 0.242226 0.922061
-0.188520 0.238226 0.906837
-0.355096 0.242461 0.886850
-0.359633 0.252298 0.922831
-0.373268 0.269254 0.984849
-0.346310 0.257061 0.940253
-0.333399 0.254879 0.932272
-0.323451 0.254897 0.932338
-0.265762 0.267068 0.976856
-0.220604 0.251328 0.919284
-0.193750 0.242335 0.886390
-0.192768 0.253511 0.927269
-0.392035 0.270919 0.953634
-0.340415 0.248159 0.873518
-0.355384 0.266381 0.937662
-0.342466 0.264152 0.929816
-0.331036 0.262973 0.925664
-0.320862 0.262748 0.924874
-0.321272 0.271452 0.955512
-0.263368 0.275016 0.968055
-0.202658 0.263393 0.927144
-0.195211 0.266768 0.939023
-0.166136 0.239349 0.842507
-0.369584 0.265018 0.899019
-0.355319 0.261596 0.887408
-0.334865 0.260451 0.883524
-0.343607 0.275010 0.932915
-0.325854 0.268601 0.911172
-0.318793 0.270882 0.918910
-0.308968 0.270885 0.918919
-0.245697 0.277116 0.940058
-0.236890 0.278582 0.945032
-0.233630 0.286994 0.973567
-0.211874 0.285739 0.969308
-0.194250 0.275448 0.934399
-0.182850 0.273345 0.927265
-0.410182 0.304802 0.997776
-0.351576 0.268231 0.878060
-0.364529 0.285745 0.935394
-0.339460 0.273604 0.895648
-0.338324 0.280607 0.918572
-0.351981 0.300664 0.984232
-0.337280 0.296988 0.972198
-0.316159 0.287246 0.940305
-0.290786 0.272873 0.893255
-0.251602 0.306619 1.003723
-0.237022 0.301725 0.987703
-0.212380 0.296813 0.971623
-0.198062 0.291044 0.952738
-0.191220 0.296229 0.969713
0.404435 0.299557 0.980607
