3
-0.401913 -0.297350 0.977662
-0.411084 -0.312259 1.026680
-0.215281 -0.299550 0.984895
-0.152996 -0.301356 0.990833
-0.144571 -0.305953 1.005946
-0.134417 -0.307335 1.010489
-0.123098 -0.306064 1.006313
-0.111254 -0.303116 0.996619
-0.098534 -0.296908 0.976209
0.162641 -0.317603 1.044250
0.160825 -0.293878 0.966245
0.174266 -0.299212 0.983783
0.183680 -0.297418 0.977883
0.196057 -0.300357 0.987547
0.227590 -0.300155 0.986884
0.244915 -0.308688 1.014938
0.284091 -0.304144 1.000000
-0.406581 -0.290226 0.989016
-0.390392 -0.286114 0.975003
-0.224233 -0.301034 1.025849
-0.153304 -0.291344 0.992825
-0.144721 -0.295500 1.006987
-0.134554 -0.296830 1.011520
0.163668 -0.308370 1.050845
0.167321 -0.294996 1.005273
0.185426 -0.307177 1.046780
0.200320 -0.296095 1.009017
0.234607 -0.298528 1.017308
0.242355 -0.294720 1.004330
0.247185 -0.287836 0.980873
0.273790 -0.293872 1.001441
0.283622 -0.292965 0.998349
0.297866 -0.296515 1.010448
0.312445 -0.300138 1.022795
0.314841 -0.292210 0.995777
0.325984 -0.292652 0.997284
0.339395 -0.295038 1.005416
0.352967 -0.297413 1.013509
0.363851 -0.297450 1.013633
0.375780 -0.298314 1.016578
0.383775 -0.296094 1.009011
0.397482 -0.298282 1.016467
0.406459 -0.296898 1.011752
0.418779 -0.297964 1.015386
-0.383344 -0.270709 0.957400
-0.237258 -0.306911 1.085435
0.049778 -0.288438 1.020104
0.059781 -0.284125 1.004850
0.071658 -0.288678 1.020952
0.081922 -0.286388 1.012853
0.175311 -0.318268 1.125601
0.176318 -0.281444 0.995366
0.188651 -0.283984 1.004348
0.198870 -0.268761 0.950510
0.227664 -0.292710 1.035212
0.234307 -0.287281 1.016009
0.242799 -0.284498 1.006169
0.243954 -0.273720 0.968050
0.271637 -0.280935 0.993567
0.281429 -0.280105 0.990630
0.301461 -0.289156 1.022643
0.338733 -0.313532 1.108850
0.331907 -0.296821 1.049751
0.338477 -0.283516 1.002695
0.352469 -0.286170 1.012080
0.359670 -0.283316 1.001987
0.375846 -0.287492 1.016756
0.384108 -0.285550 1.009887
0.400129 -0.289324 1.023235
0.409542 -0.288247 1.019426
0.426205 -0.292196 1.033393
-0.372483 -0.253090 0.930276
-0.217081 -0.284090 1.044223
-0.037196 -0.275252 1.011737
-0.026352 -0.275009 1.010844
-0.015467 -0.273700 1.006031
-0.004710 -0.273842 1.006554
0.005999 -0.271284 0.997152
0.016859 -0.274472 1.008870
0.027628 -0.274256 1.008076
0.039060 -0.278900 1.025147
0.049428 -0.275579 1.012939
0.061125 -0.279528 1.027454
0.071686 -0.277867 1.021350
0.082490 -0.277465 1.019872
0.092103 -0.273619 1.005733
0.144737 -0.271465 0.997818
0.169423 -0.295944 1.087796
0.170245 -0.278271 1.022835
0.179764 -0.276091 1.014821
0.192081 -0.278210 1.022610
0.199393 -0.273242 1.004349
0.251954 -0.284059 1.044110
0.254334 -0.274573 1.009241
0.265605 -0.275066 1.011055
0.279329 -0.277964 1.021704
0.309695 -0.285818 1.050574
0.327532 -0.281829 1.035914
0.333448 -0.277533 1.020120
0.339111 -0.273304 1.004575
0.369226 -0.279841 1.028606
0.369537 -0.271974 0.999687
0.391060 -0.279721 1.028164
0.398741 -0.277415 1.019687
0.409382 -0.277235 1.019027
-0.377047 -0.246119 0.941674
-0.371853 -0.249390 0.954189
-0.365985 -0.252381 0.965633
-0.366414 -0.260014 0.994838
-0.357435 -0.261228 0.999483
-0.369410 -0.278303 1.064813
-0.342058 -0.265894 1.017335
-0.194785 -0.244890 0.936970
-0.188089 -0.263594 1.008533
-0.176147 -0.261876 1.001960
-0.166388 -0.263391 1.007758
-0.146260 -0.247565 0.947207
-0.142345 -0.258869 0.990454
-0.088657 -0.256776 0.982449
-0.078212 -0.256982 0.983235
-0.070168 -0.266365 1.019136
-0.058931 -0.264852 1.013345
-0.047482 -0.261483 1.000456
-0.037230 -0.264674 1.012666
-0.026422 -0.264897 1.013519
-0.015538 -0.264144 1.010638
-0.004765 -0.266177 1.018418
0.006117 -0.265765 1.016840
0.016837 -0.263324 1.007500
0.027873 -0.265812 1.017019
0.038665 -0.265232 1.014799
0.049130 -0.263147 1.006822
0.059865 -0.263004 1.006275
0.073065 -0.272079 1.040997
0.085874 -0.277495 1.061720
0.094663 -0.270169 1.033692
0.102997 -0.263213 1.007078
0.132385 -0.279798 1.070531
0.144481 -0.260332 0.996053
0.157248 -0.263880 1.009629
0.167030 -0.262284 1.003521
0.178562 -0.263464 1.008034
0.188905 -0.262854 1.005703
0.200957 -0.264559 1.012227
0.210663 -0.263161 1.006876
0.221455 -0.263188 1.006982
0.245175 -0.277865 1.063137
0.249144 -0.269848 1.032463
0.258088 -0.267672 1.024138
0.293013 -0.291522 1.115389
0.279768 -0.267456 1.023308
0.289174 -0.266040 1.017893
0.320662 -0.284306 1.087780
0.323280 -0.276592 1.058265
0.326502 -0.269899 1.032659
0.328146 -0.262383 1.003899
0.341373 -0.264310 1.011274
0.347530 -0.260814 0.997899
0.375525 -0.273427 1.046155
0.375761 -0.265683 1.016525
0.385216 -0.264709 1.012801
0.399203 -0.266818 1.020868
0.410293 -0.266929 1.021295
0.423128 -0.268141 1.025932
-0.364401 -0.248004 0.989372
-0.355609 -0.249258 0.994375
-0.356183 -0.257358 1.026686
-0.342019 -0.254984 1.017217
-0.206196 -0.248628 0.991860
-0.201248 -0.255824 1.020566
-0.188714 -0.253648 1.011886
-0.176191 -0.251223 1.002212
-0.169176 -0.256847 1.024646
-0.151917 -0.246619 0.983845
-0.142775 -0.249027 0.993451
-0.134817 -0.254053 1.013501
-0.025924 -0.249267 0.994410
-0.015410 -0.251257 1.002348
-0.004701 -0.251843 1.004686
0.006057 -0.252367 1.006777
0.016821 -0.252312 1.006555
0.027526 -0.251760 1.004353
0.038422 -0.252778 1.008416
0.048915 -0.251276 1.002422
0.059562 -0.250965 1.001182
0.068997 -0.246419 0.983048
0.079999 -0.247931 0.989079
0.092594 -0.253452 1.011104
0.102073 -0.250178 0.998043
0.112766 -0.250220 0.998210
0.136256 -0.254209 1.014123
0.149500 -0.258352 1.030653
0.158138 -0.254514 1.015340
0.163592 -0.246374 0.982869
0.182322 -0.258002 1.029257
0.190289 -0.253945 1.013071
0.200607 -0.253292 1.010465
0.215512 -0.258202 1.030052
0.222646 -0.253776 1.012396
0.233959 -0.254303 1.014499
0.246625 -0.256189 1.022025
0.255315 -0.253961 1.013135
0.277467 -0.264759 1.056210
0.279421 -0.256192 1.022037
0.291120 -0.256871 1.024743
0.307317 -0.261324 1.042509
0.320951 -0.263362 1.050640
0.324866 -0.257558 1.027484
0.325588 -0.249684 0.996073
0.347533 -0.258069 1.029525
0.352573 -0.253771 1.012377
0.365268 -0.255075 1.017581
0.373416 -0.253221 1.010183
0.384820 -0.253616 1.011760
0.395547 -0.253556 1.011519
0.401744 -0.250672 1.000015
0.415342 -0.252436 1.007052
-0.345119 -0.246318 1.026438
-0.191376 -0.220913 0.920575
-0.188902 -0.229884 0.957956
-0.182365 -0.234656 0.977842
-0.175723 -0.239865 0.999550
-0.165080 -0.239933 0.999834
-0.152194 -0.236527 0.985639
-0.141105 -0.235613 0.981831
-0.133118 -0.240147 1.000725
-0.122416 -0.240149 1.000732
-0.112314 -0.241441 1.006117
0.026930 -0.235801 0.982612
0.038007 -0.239380 0.997526
0.049463 -0.243248 1.013646
0.060344 -0.243408 1.014314
0.092544 -0.242505 1.010549
0.102605 -0.240754 1.003252
0.113662 -0.241448 1.006147
0.124170 -0.240957 1.004101
0.135631 -0.242247 1.009473
0.145927 -0.241419 1.006023
0.154991 -0.238807 0.995138
0.167169 -0.241019 1.004357
0.179179 -0.242737 1.011516
0.190767 -0.243720 1.015613
0.199518 -0.241169 1.004982
0.212765 -0.244034 1.016922
0.222434 -0.242717 1.011434
0.232614 -0.242053 1.008666
0.251467 -0.250074 1.042090
0.257817 -0.245507 1.023061
0.271292 -0.247822 1.032705
0.278299 -0.244277 1.017934
0.287003 -0.242433 1.010249
0.296918 -0.241709 1.007232
0.309671 -0.243264 1.013715
0.312597 -0.237257 0.988679
0.335708 -0.246460 1.027032
0.342197 -0.243265 1.013716
0.349279 -0.240674 1.002920
0.365285 -0.244203 1.017627
0.373394 -0.242402 1.010123
0.383167 -0.241752 1.007412
0.399801 -0.245348 1.022396
0.408675 -0.244117 1.017269
0.421990 -0.245534 1.023171
-0.196335 -0.228281 0.995651
-0.184460 -0.226773 0.989074
-0.174048 -0.226990 0.990021
-0.165577 -0.229931 1.002850
-0.154901 -0.230005 1.003169
-0.145699 -0.232440 1.013791
-0.133854 -0.230714 1.006262
-0.122631 -0.229849 1.002488
-0.111307 -0.228612 0.997097
-0.100241 -0.227701 0.993120
-0.090359 -0.229580 1.001315
-0.076306 -0.219941 0.959278
-0.049299 -0.238163 1.038750
-0.039047 -0.243509 1.062067
0.026956 -0.225511 0.983572
0.037908 -0.228112 0.994914
0.146898 -0.232194 1.012718
0.156255 -0.230024 1.003253
0.177588 -0.229859 1.002534
0.189277 -0.231039 1.007680
0.198870 -0.229671 1.001716
0.210862 -0.231072 1.007824
0.223026 -0.232516 1.014124
0.232868 -0.231518 1.009771
0.240022 -0.228054 0.994661
0.254915 -0.231925 1.011546
0.270543 -0.236123 1.029854
0.277619 -0.232820 1.015449
0.285061 -0.230061 1.003413
0.296718 -0.230781 1.006554
0.301994 -0.226661 0.988584
0.321919 -0.233442 1.018162
0.330187 -0.231604 1.010144
0.339105 -0.230323 1.004558
0.352060 -0.231778 1.010905
0.360065 -0.229985 1.003085
0.406974 -0.232266 1.013034
0.420966 -0.234021 1.020688
-0.208908 -0.219656 1.004909
-0.197835 -0.219296 1.003260
-0.181644 -0.212895 0.973977
-0.175576 -0.218302 0.998716
-0.155926 -0.220726 1.009804
-0.143350 -0.218026 0.997451
-0.131598 -0.216244 0.989299
-0.121084 -0.216363 0.989844
-0.110652 -0.216666 0.991231
-0.100610 -0.217878 0.996777
-0.090358 -0.218868 1.001303
-0.077604 -0.213247 0.975590
-0.069203 -0.219703 1.005122
-0.059145 -0.222303 1.017019
-0.048252 -0.222233 1.016699
-0.036996 -0.219957 1.006286
-0.025937 -0.217474 0.994926
-0.015275 -0.217170 0.993538
-0.004659 -0.217644 0.995704
0.005965 -0.216720 0.991479
0.027089 -0.216049 0.988409
0.037845 -0.217108 0.993254
0.046855 -0.209886 0.960213
0.057978 -0.213019 0.974547
0.273046 -0.218303 0.998719
0.286998 -0.220819 1.010231
0.294042 -0.218031 0.997475
0.308073 -0.220437 1.008484
0.321316 -0.222136 1.016255
-0.206911 -0.206911 0.995301
-0.199010 -0.209804 1.009216
-0.182355 -0.203270 0.977788
-0.175148 -0.207114 0.996278
-0.165419 -0.208280 1.001889
-0.154979 -0.208652 1.003677
-0.145316 -0.210201 1.011128
-0.133028 -0.207897 1.000046
-0.123134 -0.209261 1.006604
-0.112739 -0.209951 1.009924
-0.102305 -0.210707 1.013564
-0.090473 -0.208423 1.002577
-0.080192 -0.209579 1.008134
-0.069499 -0.209846 1.009418
-0.058947 -0.210717 1.013611
-0.048196 -0.211112 1.015510
-0.037067 -0.209596 1.008216
-0.025935 -0.206812 0.994825
-0.015094 -0.204090 0.981734
-0.004636 -0.205990 0.990874
0.005937 -0.205164 0.986899
0.016467 -0.204846 0.985370
0.027186 -0.206218 0.991970
0.037396 -0.204038 0.981481
0.048127 -0.205032 0.986265
0.297751 -0.209979 1.010058
0.293971 -0.200055 0.962321
0.339556 -0.209112 1.005892
0.344135 -0.205424 0.988150
0.355241 -0.205735 0.989647
0.362559 -0.203899 0.980811
-0.207279 -0.196615 0.997072
-0.162551 -0.194140 0.984520
-0.155580 -0.198684 1.007564
-0.145785 -0.200031 1.014395
-0.134513 -0.199403 1.011210
-0.123741 -0.199473 1.011567
-0.111319 -0.196642 0.997206
-0.101426 -0.198150 1.004857
-0.090364 -0.197462 1.001365
-0.079933 -0.198154 1.004877
-0.069533 -0.199149 1.009920
-0.059077 -0.200320 1.015861
-0.048100 -0.199851 1.013482
-0.037296 -0.200040 1.014439
0.016254 -0.191799 0.972646
0.026851 -0.193199 0.979749
0.037179 -0.192420 0.975797
0.048575 -0.196297 0.995460
0.059866 -0.198431 1.006283
0.069344 -0.194823 0.987983
0.080406 -0.196030 0.994105
0.265396 -0.199216 1.010261
0.269824 -0.194616 0.986935
0.274658 -0.190645 0.966797
0.293236 -0.196155 0.994741
0.304697 -0.196686 0.997433
0.317026 -0.197722 1.002687
0.329772 -0.198942 1.008873
0.349184 -0.203979 1.034415
0.361817 -0.204868 1.038921
-0.111329 -0.185994 0.997299
-0.101705 -0.187918 1.007620
-0.090987 -0.188040 1.008274
-0.078215 -0.183379 0.983278
-0.067537 -0.182940 0.980924
-0.057192 -0.183410 0.983447
-0.047147 -0.185268 0.993407
-0.037477 -0.190108 1.019361
0.048194 -0.184193 0.987644
0.058690 -0.183983 0.986520
0.069109 -0.183631 0.984633
0.079264 -0.182765 0.979989
0.089935 -0.183152 0.982064
0.101324 -0.184767 0.990724
0.111924 -0.184774 0.990759
0.120056 -0.181057 0.970830
0.214618 -0.191305 1.025779
0.221872 -0.188153 1.008879
0.228072 -0.184441 0.988974
0.246261 -0.190324 1.020518
0.253279 -0.187440 1.005054
0.264569 -0.187824 1.007113
0.269821 -0.184059 0.986924
0.271415 -0.178176 0.955380
0.286253 -0.181099 0.971054
0.326488 -0.186279 0.998828
0.345933 -0.191120 1.024785
0.359710 -0.192628 1.032873
-0.119027 -0.171061 0.973032
-0.112603 -0.177333 1.008706
-0.101941 -0.177553 1.009957
-0.089295 -0.173960 0.989519
-0.079287 -0.175231 0.996752
-0.069134 -0.176527 1.004125
-0.057487 -0.173784 0.988520
-0.047710 -0.176730 1.005276
-0.036781 -0.175878 1.000432
-0.025986 -0.175236 0.996777
-0.015349 -0.175517 0.998377
-0.004717 -0.177229 1.008114
0.089329 -0.171486 0.975451
0.098853 -0.169924 0.966563
0.107861 -0.167854 0.954792
0.118206 -0.168044 0.955872
0.133387 -0.174531 0.992772
0.146066 -0.177029 1.006978
0.157146 -0.177379 1.008970
0.169060 -0.178565 1.015716
0.182625 -0.181246 1.030967
0.189401 -0.177269 1.008342
0.201033 -0.178019 1.012608
0.211871 -0.178026 1.012650
0.228388 -0.182572 1.038506
0.235258 -0.171393 0.974919
0.240559 -0.167817 0.954581
0.267378 -0.178932 1.017804
0.278542 -0.179112 1.018825
0.282693 -0.174937 0.995078
0.299627 -0.178689 1.016420
0.307494 -0.176960 1.006588
0.315235 -0.175279 0.997024
-0.278914 -0.162865 0.986420
-0.258943 -0.157147 0.951791
-0.120619 -0.162802 0.986042
-0.112895 -0.166976 1.011321
-0.102212 -0.167195 1.012648
-0.088934 -0.162716 0.985519
-0.079102 -0.164186 0.994423
-0.069144 -0.165811 1.004265
-0.058049 -0.164805 0.998171
-0.047988 -0.166945 1.011132
-0.014923 -0.160256 0.970618
-0.004566 -0.161104 0.975757
0.006122 -0.168005 1.017555
0.016849 -0.166471 1.008262
0.025581 -0.154111 0.933399
0.037919 -0.164316 0.995211
0.092935 -0.150033 0.908702
0.108743 -0.158932 0.962600
0.116111 -0.155024 0.938933
0.123653 -0.151952 0.920324
0.141267 -0.160797 0.973893
0.153122 -0.162323 0.983137
0.167254 -0.165911 1.004869
0.180422 -0.168167 1.018532
0.191070 -0.167951 1.017226
0.276057 -0.166714 1.009736
0.278543 -0.161883 0.980471
0.290341 -0.162617 0.984919
0.304140 -0.164382 0.995610
0.315979 -0.165004 0.999374
-0.319617 -0.151605 0.981820
-0.271101 -0.148048 0.958786
-0.254266 -0.144313 0.934598
-0.129198 -0.163086 1.056176
-0.110452 -0.152781 0.989437
-0.098058 -0.150009 0.971487
-0.086188 -0.147478 0.955094
-0.077772 -0.150970 0.977711
-0.069083 -0.154934 1.003384
-0.055645 -0.147747 0.956840
-0.046233 -0.150420 0.974150
-0.036435 -0.153029 0.991043
-0.025930 -0.153584 0.994639
0.005821 -0.149401 0.967551
0.016421 -0.151730 0.982634
0.027017 -0.152217 0.985784
0.037964 -0.153855 0.996392
0.049194 -0.155669 1.008144
0.058449 -0.151705 0.982472
0.083373 -0.159166 1.030791
0.090003 -0.151758 0.982812
0.278663 -0.151461 0.980893
0.279867 -0.146597 0.949389
0.299380 -0.151328 0.980028
0.313516 -0.153113 0.991586
0.296567 -0.140096 0.907290
-0.319487 -0.141047 0.981423
-0.270939 -0.137711 0.958213
-0.264774 -0.139868 0.973224
-0.033480 -0.130875 0.910648
-0.024129 -0.133022 0.925583
-0.015181 -0.141914 0.987457
-0.004674 -0.143549 0.998832
0.025927 -0.135958 0.946017
0.036207 -0.136570 0.950272
0.047487 -0.139859 0.973155
0.060475 -0.146091 1.016520
0.067499 -0.138211 0.961695
0.079114 -0.140574 0.978131
0.086819 -0.136249 0.948042
0.100662 -0.128061 0.891064
0.117791 -0.136893 0.952519
0.284314 -0.143830 1.000786
0.292703 -0.142701 0.992933
0.297672 -0.140043 0.974438
0.316714 -0.143961 1.001699
-0.261327 -0.127774 0.960554
-0.025001 -0.127569 0.959015
-0.014480 -0.125285 0.941839
-0.004462 -0.126849 0.953600
0.005665 -0.125255 0.941615
0.016419 -0.130693 0.982498
0.045234 -0.123310 0.926997
0.056935 -0.127304 0.957018
0.070302 -0.133240 1.001640
0.076731 -0.126194 0.948674
0.087616 -0.127267 0.956744
0.100615 -0.130865 0.983788
0.109205 -0.128591 0.966692
0.118627 -0.127604 0.959273
0.140587 -0.128925 0.969205
0.153367 -0.130988 0.984711
0.277815 -0.130083 0.977908
0.277053 -0.125019 0.939843
0.298684 -0.130061 0.977748
0.329515 -0.138633 1.042188
-0.300704 -0.112996 0.923723
-0.260931 -0.117323 0.959096
-0.260084 -0.121727 0.995102
-0.004478 -0.117060 0.956947
0.005624 -0.114351 0.934801
0.015871 -0.116178 0.949742
0.025220 -0.112568 0.920228
0.035167 -0.112905 0.922982
0.071821 -0.125175 1.023285
0.079278 -0.119899 0.980159
0.091022 -0.121583 0.993928
0.104151 -0.112779 0.921956
0.114373 -0.113136 0.924872
0.128637 -0.117117 0.957417
0.140499 -0.118485 0.968598
0.156030 -0.122547 1.001804
0.169533 -0.124596 1.018559
0.276840 -0.119204 0.974477
0.274907 -0.114077 0.932565
0.279284 -0.111836 0.914243
0.288798 -0.111734 0.913407
-0.304280 -0.104342 0.934707
-0.304774 -0.108062 0.968029
-0.261206 -0.107178 0.960110
-0.252120 -0.107683 0.964633
0.005807 -0.107755 0.965275
0.015927 -0.106393 0.953079
0.025178 -0.102553 0.918678
0.034546 -0.101213 0.906671
0.044713 -0.102289 0.916310
0.058566 -0.109893 0.984431
0.065893 -0.104802 0.938821
0.073376 -0.101271 0.907194
0.085936 -0.104754 0.938394
0.101607 -0.110905 0.993495
0.112909 -0.111573 0.999479
0.141713 -0.109060 0.976970
0.150433 -0.107821 0.965872
0.160251 -0.107478 0.962796
0.174664 -0.110071 0.986029
0.183230 -0.108895 0.975490
0.192932 -0.108483 0.971804
0.263480 -0.103532 0.927448
0.272353 -0.103136 0.923902
0.279294 -0.102061 0.914275
0.295922 -0.104480 0.935941
-0.271552 -0.100748 0.998137
-0.247750 -0.095678 0.947911
0.043467 -0.089911 0.890779
0.054302 -0.092131 0.912765
0.065519 -0.094222 0.933486
0.072868 -0.090934 0.900911
0.082994 -0.091475 0.906265
0.096069 -0.094813 0.939344
0.105792 -0.094525 0.936482
0.119298 -0.097373 0.964698
0.127803 -0.096011 0.951211
0.162192 -0.098357 0.974453
0.172000 -0.098007 0.970986
0.184076 -0.098916 0.979991
0.193974 -0.098620 0.977053
0.275288 -0.094260 0.933858
0.288512 -0.095329 0.944449
0.290417 -0.092713 0.918529
-0.269691 -0.089455 0.991298
-0.250818 -0.086599 0.959650
0.043355 -0.080178 0.888489
0.062429 -0.080265 0.889459
0.073873 -0.082420 0.913338
0.082879 -0.081669 0.905017
0.090981 -0.080278 0.889594
0.101110 -0.080768 0.895035
0.111249 -0.081182 0.899613
0.124239 -0.083444 0.924685
0.135446 -0.084263 0.933763
0.146952 -0.085144 0.943521
0.281811 -0.086269 0.955986
0.290786 -0.085900 0.951894
-0.296890 -0.075010 0.942988
-0.265128 -0.077519 0.974523
-0.251147 -0.076436 0.960909
0.071617 -0.070434 0.885451
0.081607 -0.070884 0.891119
0.094534 -0.073526 0.924328
0.106811 -0.075210 0.945497
0.110601 -0.071143 0.894375
0.124667 -0.073808 0.927867
0.136140 -0.074657 0.938548
0.144793 -0.073950 0.929661
0.265049 -0.074214 0.932974
0.280488 -0.075687 0.951497
-0.296928 -0.064933 0.943110
-0.262325 -0.066387 0.964221
-0.254249 -0.066976 0.972778
0.081482 -0.061260 0.889754
0.092421 -0.062218 0.903669
0.104585 -0.063741 0.925795
0.110788 -0.061682 0.895889
0.122965 -0.063012 0.915201
0.141635 -0.067228 0.976433
0.239600 -0.062796 0.912065
0.249125 -0.062738 0.911226
0.261339 -0.063336 0.919913
0.271332 -0.063372 0.920437
0.281740 -0.063499 0.922282
0.295950 -0.064446 0.936027
0.303953 -0.064023 0.929883
0.309689 -0.063164 0.917416
0.320977 -0.063456 0.921653
0.332322 -0.063741 0.925797
-0.312457 -0.057715 0.992431
-0.250366 -0.053518 0.920265
-0.250831 -0.055811 0.959700
0.075699 -0.054428 0.935914
0.094505 -0.053738 0.924046
0.098223 -0.050565 0.869479
0.108769 -0.051151 0.879557
0.121206 -0.052462 0.902107
0.133725 -0.053613 0.921901
0.146130 -0.054563 0.938240
0.216083 -0.052075 0.895458
0.224834 -0.051885 0.892180
0.240292 -0.053195 0.914701
0.249945 -0.053167 0.914224
0.259807 -0.053184 0.914521
0.268177 -0.052906 0.909735
-0.369119 -0.046221 0.973900
-0.359531 -0.046328 0.976148
-0.291381 -0.045468 0.958037
-0.257080 -0.046682 0.983612
-0.242394 -0.045893 0.966991
0.075918 -0.044547 0.938628
0.097690 -0.041041 0.864756
0.109994 -0.042214 0.889463
0.120120 -0.042431 0.894031
0.127299 -0.041651 0.877601
0.219576 -0.043185 0.909934
0.232387 -0.043765 0.922153
0.234964 -0.042449 0.894417
0.238534 -0.041408 0.872486
-0.370311 -0.035921 0.977047
-0.362918 -0.036226 0.985346
-0.352918 -0.036281 0.986850
-0.258932 -0.036423 0.990695
-0.243533 -0.035718 0.971533
0.118909 -0.032537 0.885013
0.127665 -0.032358 0.880124
0.215602 -0.032848 0.893466
0.230299 -0.033598 0.913864
-0.368357 -0.024641 0.945219
-0.354507 -0.024384 0.935347
-0.355450 -0.025159 0.965070
-0.350142 -0.025524 0.979088
-0.339637 -0.025522 0.978993
-0.262744 -0.026207 1.005283
-0.237430 -0.024693 0.947186
0.119826 -0.023250 0.891837
0.129612 -0.023294 0.893545
-0.375233 -0.014803 0.962863
-0.358920 -0.014559 0.946990
-0.361216 -0.015078 0.980724
-0.350463 -0.015067 0.979986
-0.298494 -0.014576 0.948083
-0.293065 -0.014814 0.963573
-0.257629 -0.015155 0.985711
-0.247526 -0.015182 0.987463
0.120473 -0.013786 0.896657
0.130941 -0.013879 0.902707
-0.373854 -0.004489 0.959324
-0.365970 -0.004518 0.965592
-0.368289 -0.004679 0.999928
-0.351124 -0.004594 0.981834
-0.307486 -0.004570 0.976645
-0.291554 -0.004485 0.958604
-0.290621 -0.004634 0.990362
-0.258200 -0.004623 0.987895
-0.252953 -0.004722 1.009115
-0.362609 0.005598 0.930468
-0.357470 0.005674 0.943165
-0.362471 0.005921 0.984131
-0.355714 0.005984 0.994671
-0.342213 0.005934 0.986416
-0.317427 0.006065 1.008219
-0.318789 0.006306 1.048150
-0.281350 0.005768 0.958770
-0.269547 0.005735 0.953290
-0.267061 0.006147 1.021798
-0.254985 0.006120 1.017222
-0.361105 0.015485 0.926609
-0.353818 0.015600 0.933531
-0.351517 0.015949 0.954391
-0.341761 0.015970 0.955654
-0.316720 0.016811 1.005973
-0.300550 0.016514 0.988183
-0.265158 0.016954 1.014519
-0.254075 0.016938 1.013591
-0.247164 0.017212 1.029963
-0.373083 0.026237 0.957344
-0.356273 0.025762 0.940007
-0.342982 0.025521 0.931219
-0.342422 0.026242 0.957500
-0.285987 0.025770 0.940299
-0.287328 0.026835 0.979142
-0.254520 0.027828 1.015366
-0.241967 0.027634 1.008309
-0.388165 0.035976 0.944219
-0.403216 0.038369 1.007030
-0.398810 0.038992 1.023362
-0.345097 0.035700 0.936960
-0.345595 0.036820 0.966374
-0.251955 0.038297 1.005133
-0.236031 0.037476 0.983571
-0.373074 0.044284 0.907510
-0.369395 0.045018 0.922562
-0.367717 0.046044 0.943577
-0.360299 0.046388 0.950630
-0.345509 0.045775 0.938078
-0.331167 0.045187 0.926031
-0.287384 0.047788 0.979333
-0.258606 0.050342 1.031666
-0.247586 0.050345 1.031723
-0.382081 0.055293 0.929421
-0.368590 0.054765 0.920551
-0.353158 0.055434 0.931789
-0.338006 0.054596 0.917708
-0.327688 0.054513 0.916301
-0.316712 0.054311 0.912913
-0.276539 0.054092 0.909235
-0.284243 0.057626 0.968628
-0.249804 0.059287 0.996551
-0.249466 0.061845 1.039558
-0.384585 0.065661 0.935510
-0.373741 0.065514 0.933416
-0.362026 0.065202 0.928973
-0.346986 0.064257 0.915505
-0.337283 0.064273 0.915744
-0.325457 0.063875 0.910064
-0.283060 0.065322 0.930677
-0.246745 0.069089 0.984347
-0.239113 0.069936 0.996416
-0.411096 0.080882 1.000000
-0.377942 0.076345 0.943907
-0.390535 0.081054 1.002128
-0.347531 0.074164 0.916942
-0.341854 0.075071 0.928155
-0.331301 0.074930 0.926404
-0.316469 0.073782 0.912211
-0.287931 0.076571 0.946692
-0.271235 0.074760 0.924301
-0.257315 0.073606 0.910033
-0.246633 0.073323 0.906544
-0.240991 0.077760 0.961392
-0.242331 0.081677 1.009827
-0.411096 0.091578 1.000000
-0.378378 0.086540 0.944996
-0.377364 0.088677 0.968329
-0.370897 0.089617 0.978593
-0.338563 0.084180 0.919221
-0.325433 0.083335 0.909997
-0.314293 0.082964 0.905940
-0.273269 0.085280 0.931232
-0.256686 0.083135 0.907805
-0.258121 0.094300 1.029730
-0.242244 0.092444 1.009462
-0.229604 0.091708 1.001420
-0.390848 0.099833 0.976141
-0.366058 0.096067 0.939319
-0.360661 0.097321 0.951584
-0.338579 0.094015 0.919262
-0.333167 0.095280 0.931623
-0.325594 0.095984 0.938514
-0.264154 0.092063 0.900169
-0.257980 0.093312 0.912382
-0.230972 0.098437 0.962491
-0.228478 0.101916 0.996512
-0.376015 0.103328 0.914665
-0.368963 0.104098 0.921484
-0.365357 0.105910 0.937521
-0.355394 0.105929 0.937689
-0.334175 0.102497 0.907307
-0.325203 0.102728 0.909354
-0.321124 0.104566 0.925628
-0.272920 0.105065 0.930042
-0.256191 0.102355 0.906055
-0.225226 0.106026 0.938548
-0.231325 0.113976 1.008927
-0.377581 0.113581 0.918473
-0.372290 0.114981 0.929792
-0.371731 0.117959 0.953875
-0.358575 0.116995 0.946081
-0.342905 0.115131 0.931008
-0.329962 0.114099 0.922660
-0.324690 0.115737 0.935908
-0.274314 0.115599 0.934792
-0.255622 0.111797 0.904043
-0.232156 0.119635 0.967423
-0.228170 0.123065 0.995166
-0.387124 0.126523 0.941686
-0.373652 0.125382 0.933194
-0.356870 0.126509 0.941583
-0.342807 0.125053 0.930743
-0.330000 0.123981 0.922768
-0.283438 0.129774 0.965883
-0.261218 0.124125 0.923836
-0.246126 0.121551 0.904681
-0.219460 0.122873 0.914520
-0.224649 0.131645 0.979809
-0.388845 0.137202 0.945872
-0.391561 0.141851 0.977921
-0.365672 0.136108 0.938329
-0.358071 0.137040 0.944753
-0.343567 0.135307 0.932807
-0.339763 0.137810 0.950066
-0.272668 0.134781 0.929182
-0.256976 0.131829 0.908833
-0.249993 0.133289 0.918893
-0.221534 0.133907 0.923159
-0.231138 0.146230 1.008111
-0.406233 0.153906 0.988170
-0.390963 0.152078 0.976429
-0.366355 0.146416 0.940080
-0.358793 0.147440 0.946656
-0.350169 0.148075 0.950732
-0.341971 0.148933 0.956242
-0.309064 0.138751 0.890866
-0.257901 0.142059 0.912103
-0.249061 0.142583 0.915467
-0.228135 0.148066 0.950670
-0.230690 0.156708 1.006159
-0.220572 0.157166 1.009102
-0.384079 0.155505 0.934279
-0.385124 0.160093 0.961846
-0.361706 0.154485 0.928151
-0.341909 0.154511 0.928304
-0.325027 0.151274 0.908860
-0.311517 0.149456 0.897939
-0.240370 0.166719 1.001652
-0.219785 0.159552 0.958595
-0.222167 0.169173 1.016396
-0.383829 0.165390 0.933672
-0.374420 0.165645 0.935111
-0.377361 0.171528 0.968322
-0.358915 0.167747 0.946979
-0.349028 0.167863 0.947633
-0.324905 0.160934 0.908521
-0.329797 0.168394 0.950630
-0.216757 0.167465 0.945387
-0.226677 0.183699 1.037032
-0.386074 0.176401 0.939134
-0.419838 0.202358 1.077321
-0.353328 0.175106 0.932238
-0.338378 0.172567 0.918719
-0.326717 0.171603 0.913587
-0.314852 0.170469 0.907549
-0.306605 0.171284 0.911890
-0.214652 0.175852 0.936208
-0.211763 0.181974 0.968801
-0.384310 0.185594 0.934842
-0.368736 0.182829 0.920917
-0.370173 0.188579 0.949879
-0.350810 0.183758 0.925594
-0.345532 0.186249 0.938142
-0.333402 0.185085 0.932280
-0.311495 0.183925 0.926435
-0.300745 0.183411 0.923850
-0.211191 0.182868 0.921112
-0.217777 0.197798 0.996314
-0.381548 0.194186 0.928123
-0.383121 0.200195 0.956844
-0.363518 0.206499 0.986975
-0.337860 0.197664 0.944745
-0.324495 0.195697 0.935346
-0.312278 0.194320 0.928762
-0.302207 0.194232 0.928341
-0.214663 0.195888 0.936257
-0.205995 0.197176 0.942411
-0.392794 0.210129 0.955480
-0.369829 0.203128 0.923646
-0.366310 0.206717 0.939965
-0.353075 0.210820 0.958622
-0.330808 0.203431 0.925025
-0.317733 0.201415 0.915856
-0.264269 0.213623 0.971367
-0.239259 0.201320 0.915427
-0.229667 0.201495 0.916219
-0.209699 0.201140 0.914606
-0.205827 0.207086 0.941644
-0.194990 0.206275 0.937956
-0.410031 0.230017 0.997409
-0.405234 0.233399 1.012070
-0.368521 0.218078 0.945638
-0.358994 0.224778 0.974691
-0.337750 0.217802 0.944439
-0.324341 0.215602 0.934901
-0.262195 0.222253 0.963742
-0.241672 0.213240 0.924657
-0.223643 0.224947 0.975422
-0.206605 0.217978 0.945204
-0.191768 0.212733 0.922458
-0.392928 0.230646 0.955806
-0.379635 0.228795 0.948136
-0.359625 0.222683 0.922810
-0.362056 0.237209 0.983006
-0.333234 0.224855 0.931809
-0.323890 0.225288 0.933602
-0.333336 0.239233 0.991392
-0.319876 0.237115 0.982616
-0.256797 0.219158 0.908199
-0.212669 0.223830 0.927560
-0.201925 0.222920 0.923790
-0.187880 0.218086 0.903757
-0.379968 0.232923 0.924280
-0.361531 0.227541 0.902921
-0.369098 0.238679 0.947119
-0.350047 0.239506 0.950400
-0.336047 0.236803 0.939674
-0.331402 0.248387 0.985640
-0.324050 0.250856 0.995439
-0.254675 0.226980 0.900695
-0.244092 0.226100 0.897203
-0.234882 0.226472 0.898680
-0.199611 0.230133 0.913206
-0.191456 0.232087 0.920960
-0.375927 0.240227 0.914451
-0.358033 0.234903 0.894186
-0.370634 0.249845 0.951062
-0.358850 0.248727 0.946807
-0.350834 0.250232 0.952537
-0.329092 0.241744 0.920226
-0.314269 0.245542 0.934686
-0.238571 0.230364 0.876909
-0.229387 0.230561 0.877656
-0.222814 0.243916 0.928493
-0.201297 0.241926 0.920919
-0.188121 0.237722 0.904917
-0.353895 0.241641 0.883851
-0.358005 0.251156 0.918654
-0.372036 0.268364 0.981597
-0.346526 0.257221 0.940839
-0.332448 0.254152 0.929611
-0.322812 0.254393 0.930494
-0.264278 0.265576 0.971398
-0.222478 0.253464 0.927095
-0.194175 0.242867 0.888334
-0.192650 0.253356 0.926702
-0.391593 0.270613 0.952557
-0.338738 0.246936 0.869216
-0.354546 0.265753 0.935452
-0.342350 0.264063 0.929502
-0.329281 0.261578 0.920755
-0.320199 0.262205 0.922963
-0.321272 0.271452 0.955512
-0.262406 0.274011 0.964519
-0.202028 0.262574 0.924261
-0.195329 0.266929 0.939589
-0.168055 0.242113 0.852238
-0.368810 0.264464 0.897139
-0.354082 0.260685 0.884319
-0.333562 0.259437 0.880086
-0.341939 0.273675 0.928385
-0.325262 0.268113 0.909519
-0.318773 0.270865 0.918853
-0.310221 0.271983 0.922645
-0.241692 0.272599 0.924736
-0.233984 0.275165 0.933439
-0.229675 0.282136 0.957088
-0.212104 0.286048 0.970359
-0.194393 0.275651 0.935089
-0.183592 0.274455 0.931030
-0.408512 0.303561 0.993714
-0.348783 0.266100 0.871083
-0.359194 0.281564 0.921705
-0.337909 0.272353 0.891555
-0.337751 0.280131 0.917016
-0.350164 0.299112 0.979149
-0.336699 0.296476 0.970522
-0.316047 0.287144 0.939974
-0.291382 0.273432 0.895087
-0.251602 0.306619 1.003723
-0.235004 0.299156 0.979294
-0.212243 0.296621 0.970994
-0.198026 0.290990 0.952562
-0.191220 0.296229 0.969713
0.404435 0.299557 0.980607
