3
-0.400360 -0.296202 0.973885
-0.405175 -0.307771 1.011924
-0.214064 -0.297856 0.979325
-0.152996 -0.301356 0.990833
-0.144483 -0.305767 1.005335
-0.134244 -0.306940 1.009193
-0.123282 -0.306520 1.007811
-0.111050 -0.302562 0.994796
-0.098558 -0.296979 0.976440
0.163444 -0.319172 1.049409
0.162629 -0.297173 0.977079
0.175583 -0.301473 0.991217
0.182048 -0.294775 0.969194
0.195281 -0.299168 0.983637
0.229202 -0.302281 0.993874
0.245441 -0.309351 1.017119
0.284091 -0.304144 1.000000
-0.397321 -0.283616 0.966490
-0.388411 -0.284662 0.970054
-0.224669 -0.301620 1.027845
-0.153304 -0.291344 0.992825
-0.144395 -0.294835 1.004722
-0.134247 -0.296152 1.009211
0.164866 -0.310627 1.058539
0.167457 -0.295235 1.006085
0.185527 -0.307344 1.047351
0.200320 -0.296095 1.009017
0.233764 -0.297456 1.013654
0.242103 -0.294414 1.003286
0.251453 -0.292805 0.997806
0.276190 -0.296449 1.010222
0.283582 -0.292923 0.998209
0.299220 -0.297863 1.015040
0.314904 -0.302501 1.030846
0.316703 -0.293938 1.001665
0.329139 -0.295484 1.006935
0.342582 -0.297809 1.014856
0.354293 -0.298531 1.017316
0.365353 -0.298678 1.017817
0.376501 -0.298886 1.018528
0.385511 -0.297433 1.013577
0.399697 -0.299943 1.022130
0.408923 -0.298697 1.017884
0.420089 -0.298897 1.018563
-0.383557 -0.270859 0.957933
-0.240405 -0.310982 1.099833
0.049953 -0.289455 1.023698
0.060422 -0.287176 1.015640
0.072065 -0.290318 1.026752
0.082371 -0.287957 1.018400
0.169797 -0.308259 1.090200
0.179948 -0.287238 1.015857
0.186591 -0.280882 0.993379
0.203485 -0.274997 0.972568
0.228508 -0.293795 1.039050
0.235038 -0.288177 1.019181
0.243117 -0.284872 1.007489
0.249154 -0.279554 0.988684
0.275398 -0.284825 1.007325
0.284223 -0.282885 1.000463
0.299488 -0.287264 1.015950
0.340711 -0.315363 1.115325
0.331657 -0.296598 1.048962
0.342576 -0.286950 1.014838
0.354909 -0.288151 1.019086
0.362480 -0.285529 1.009815
0.377374 -0.288660 1.020888
0.386249 -0.287141 1.015515
0.398946 -0.288469 1.020212
0.410928 -0.289222 1.022876
0.425689 -0.291842 1.032141
-0.370298 -0.251605 0.924818
-0.216982 -0.283960 1.043744
-0.037196 -0.275252 1.011737
-0.026352 -0.275009 1.010844
-0.015481 -0.273950 1.006953
-0.004711 -0.273918 1.006834
0.006009 -0.271759 0.998897
0.016885 -0.274890 1.010408
0.027913 -0.277083 1.018467
0.039121 -0.279335 1.026745
0.049443 -0.275660 1.013239
0.061294 -0.280298 1.030284
0.071608 -0.277568 1.020250
0.083161 -0.279722 1.028168
0.092701 -0.275397 1.012269
0.145968 -0.273773 1.006301
0.167007 -0.291725 1.072287
0.171135 -0.279727 1.028185
0.180423 -0.277102 1.018537
0.190357 -0.275712 1.013429
0.203127 -0.278359 1.023159
0.247348 -0.278866 1.025020
0.257099 -0.277558 1.020214
0.269144 -0.278732 1.024527
0.282847 -0.281464 1.034570
0.313524 -0.289352 1.063565
0.327052 -0.281417 1.034396
0.333166 -0.277297 1.019255
0.342394 -0.275949 1.014299
0.370348 -0.280692 1.031733
0.374261 -0.275450 1.012466
0.392351 -0.280645 1.031559
0.397246 -0.276374 1.015863
0.408815 -0.276851 1.017616
-0.374878 -0.244703 0.936256
-0.379126 -0.254268 0.972851
-0.370502 -0.255496 0.977550
-0.364739 -0.258825 0.990288
-0.356186 -0.260315 0.995989
-0.367609 -0.276946 1.059620
-0.342003 -0.265851 1.017169
-0.196973 -0.247641 0.947497
-0.188174 -0.263713 1.008991
-0.176191 -0.261941 1.002211
-0.167078 -0.264484 1.011937
-0.148875 -0.251992 0.964145
-0.142946 -0.259962 0.994638
-0.088793 -0.257171 0.983957
-0.078383 -0.257544 0.985384
-0.070117 -0.266172 1.018398
-0.058866 -0.264561 1.012232
-0.047482 -0.261483 1.000456
-0.037219 -0.264591 1.012347
-0.026359 -0.264269 1.011117
-0.015538 -0.264144 1.010638
-0.004735 -0.264490 1.011963
0.006159 -0.267580 1.023783
0.016843 -0.263421 1.007872
0.027876 -0.265844 1.017143
0.038634 -0.265019 1.013984
0.049347 -0.264313 1.011284
0.059988 -0.263543 1.008340
0.073251 -0.272772 1.043648
0.085989 -0.277864 1.063132
0.094885 -0.270803 1.036115
0.103087 -0.263445 1.007965
0.131886 -0.278744 1.066497
0.145905 -0.262897 1.005868
0.157944 -0.265048 1.014097
0.169528 -0.266206 1.018527
0.181058 -0.267146 1.022124
0.189596 -0.263815 1.009380
0.201169 -0.264839 1.013296
0.210791 -0.263320 1.007485
0.221043 -0.262699 1.005109
0.242171 -0.274461 1.050111
0.246299 -0.266767 1.020673
0.258770 -0.268380 1.026845
0.292463 -0.290975 1.113294
0.285328 -0.272771 1.043646
0.290909 -0.267637 1.024001
0.326241 -0.289253 1.106705
0.323318 -0.276625 1.058390
0.329895 -0.272703 1.043387
0.330643 -0.264379 1.011538
0.344312 -0.266586 1.019982
0.351346 -0.263678 1.008856
0.377575 -0.274920 1.051867
0.377045 -0.266590 1.019998
0.388853 -0.267208 1.022363
0.399755 -0.267187 1.022281
0.410870 -0.267305 1.022731
0.421224 -0.266935 1.021315
-0.362198 -0.246505 0.983390
-0.354051 -0.248167 0.990020
-0.356152 -0.257335 1.026596
-0.342797 -0.255564 1.019532
-0.204932 -0.247104 0.985781
-0.202068 -0.256866 1.024726
-0.188614 -0.253513 1.011347
-0.176759 -0.252032 1.005442
-0.168875 -0.256389 1.022822
-0.152318 -0.247270 0.986440
-0.143077 -0.249553 0.995552
-0.135229 -0.254828 1.016593
-0.026174 -0.251674 1.004011
-0.015584 -0.254094 1.013666
-0.004731 -0.253426 1.011002
0.006093 -0.253881 1.012817
0.016811 -0.252170 1.005992
0.027512 -0.251638 1.003868
0.038442 -0.252906 1.008926
0.049170 -0.252584 1.007643
0.060142 -0.253408 1.010929
0.070034 -0.250122 0.997822
0.080853 -0.250576 0.999633
0.094142 -0.257689 1.028007
0.103475 -0.253614 1.011751
0.114080 -0.253137 1.009847
0.136904 -0.255418 1.018946
0.150987 -0.260922 1.040905
0.161146 -0.259354 1.034651
0.167800 -0.252711 1.008147
0.181608 -0.256993 1.025231
0.190273 -0.253923 1.012984
0.201153 -0.253981 1.013216
0.216358 -0.259215 1.034096
0.224224 -0.255575 1.019574
0.235325 -0.255788 1.020424
0.250241 -0.259946 1.037010
0.255142 -0.253789 1.012448
0.276624 -0.263954 1.053001
0.279668 -0.256420 1.022943
0.291373 -0.257094 1.025633
0.309001 -0.262756 1.048220
0.322874 -0.264941 1.056937
0.329533 -0.261258 1.042245
0.328231 -0.251711 1.004159
0.350789 -0.260487 1.039168
0.355786 -0.256084 1.021606
0.370337 -0.258615 1.031702
0.376112 -0.255049 1.017474
0.387946 -0.255676 1.019976
0.398312 -0.255328 1.018589
0.404984 -0.252694 1.008080
0.419168 -0.254762 1.016329
-0.344188 -0.245653 1.023668
-0.192286 -0.221964 0.924952
-0.187865 -0.228622 0.952698
-0.182404 -0.234706 0.978051
-0.175733 -0.239879 0.999605
-0.165675 -0.240798 1.003439
-0.152855 -0.237554 0.989920
-0.141717 -0.236634 0.986086
-0.133520 -0.240873 1.003748
-0.122624 -0.240557 1.002431
-0.112314 -0.241441 1.006117
0.027012 -0.236524 0.985627
0.038260 -0.240974 1.004170
0.049393 -0.242906 1.012220
0.060218 -0.242901 1.012198
0.092888 -0.243407 1.014310
0.103609 -0.243108 1.013062
0.115749 -0.245881 1.024619
0.127428 -0.247279 1.030444
0.138823 -0.247947 1.033228
0.148935 -0.246395 1.026762
0.156659 -0.241376 1.005846
0.169404 -0.244241 1.017784
0.182189 -0.246814 1.028508
0.193663 -0.247419 1.031029
0.201020 -0.242983 1.012544
0.214501 -0.246025 1.025219
0.222148 -0.242404 1.010130
0.233816 -0.243304 1.013879
0.255602 -0.254186 1.059228
0.254972 -0.242798 1.011771
0.269173 -0.245886 1.024639
0.278555 -0.244502 1.018871
0.290208 -0.245140 1.021532
0.300645 -0.244743 1.019875
0.312469 -0.245463 1.022875
0.323235 -0.245331 1.022325
0.339778 -0.249448 1.039483
0.346734 -0.246490 1.027156
0.365024 -0.251524 1.048132
0.370618 -0.247769 1.032485
0.373394 -0.242402 1.010123
0.383186 -0.241764 1.007461
0.406373 -0.249381 1.039204
0.410298 -0.245086 1.021307
0.419248 -0.243939 1.016525
-0.196428 -0.228389 0.996122
-0.184417 -0.226721 0.988847
-0.174308 -0.227329 0.991501
-0.165761 -0.230186 1.003958
-0.155046 -0.230220 1.004107
-0.146279 -0.233367 1.017832
-0.134331 -0.231536 1.009847
-0.122777 -0.230124 1.003689
-0.111540 -0.229092 0.999187
-0.100499 -0.228287 0.995676
-0.090359 -0.229580 1.001315
-0.076306 -0.219941 0.959278
-0.049433 -0.238812 1.041583
-0.039170 -0.244277 1.065419
0.027670 -0.231483 1.009615
0.038355 -0.230805 1.006658
0.148620 -0.234915 1.024587
0.156562 -0.230476 1.005224
0.180686 -0.233869 1.020024
0.193202 -0.235831 1.028579
0.203940 -0.235526 1.027252
0.214294 -0.234833 1.024229
0.224048 -0.233581 1.018769
0.235620 -0.234254 1.021702
0.243544 -0.231401 1.009259
0.257116 -0.233927 1.020278
0.279351 -0.243810 1.063382
0.280689 -0.235395 1.026677
0.296762 -0.239504 1.044603
0.300499 -0.233722 1.019380
0.315983 -0.237160 1.034376
0.327701 -0.237635 1.036448
0.331772 -0.232715 1.014992
0.346225 -0.235159 1.025649
0.356612 -0.234775 1.023976
0.362636 -0.231628 1.010247
0.407400 -0.232510 1.014095
0.417715 -0.232214 1.012806
-0.209779 -0.220571 1.009098
-0.197808 -0.219265 1.003120
-0.182502 -0.213900 0.978578
-0.175752 -0.218520 0.999712
-0.155319 -0.219867 1.005873
-0.143919 -0.218890 1.001406
-0.132164 -0.217174 0.993554
-0.121885 -0.217794 0.996393
-0.110908 -0.217168 0.993527
-0.100577 -0.217806 0.996445
-0.090514 -0.219246 1.003034
-0.077982 -0.214287 0.980347
-0.069295 -0.219996 1.006463
-0.059148 -0.222316 1.017080
-0.048291 -0.222409 1.017505
-0.037361 -0.222127 1.016213
-0.026818 -0.224859 1.028714
-0.015884 -0.225834 1.033175
-0.004817 -0.225016 1.029432
0.006240 -0.226714 1.037199
0.027544 -0.219683 1.005031
0.038075 -0.218430 0.999298
0.048708 -0.218186 0.998185
0.060943 -0.223914 1.024389
0.279952 -0.223825 1.023982
0.295213 -0.227141 1.039151
0.302074 -0.223987 1.024723
0.311841 -0.223133 1.020818
0.325853 -0.225273 1.030606
-0.206668 -0.206668 0.994131
-0.198934 -0.209723 1.008830
-0.183142 -0.204147 0.982008
-0.175257 -0.207243 0.996899
-0.165266 -0.208088 1.000962
-0.154769 -0.208368 1.002311
-0.145850 -0.210973 1.014842
-0.133299 -0.208321 1.002086
-0.123515 -0.209907 1.009715
-0.112751 -0.209974 1.010035
-0.102189 -0.210469 1.012415
-0.090511 -0.208510 1.002994
-0.080084 -0.209294 1.006767
-0.069640 -0.210273 1.011475
-0.058940 -0.210693 1.013496
-0.048196 -0.211112 1.015510
-0.037071 -0.209618 1.008323
-0.026154 -0.208559 1.003231
-0.015369 -0.207809 0.999622
-0.004827 -0.214472 1.031671
0.006191 -0.213933 1.029080
0.017135 -0.213158 1.025352
0.028095 -0.213113 1.025137
0.038381 -0.209411 1.007326
0.049771 -0.212039 1.019967
0.302307 -0.213192 1.025513
0.302701 -0.205995 0.990898
0.352233 -0.216920 1.043446
0.359789 -0.214769 1.033099
0.375283 -0.217343 1.045482
0.380815 -0.214166 1.030199
-0.208051 -0.197348 1.000787
-0.162797 -0.194434 0.986009
-0.155590 -0.198697 1.007628
-0.145844 -0.200112 1.014804
-0.134546 -0.199453 1.011465
-0.123212 -0.198620 1.007241
-0.111329 -0.196660 0.997299
-0.101426 -0.198150 1.004857
-0.090410 -0.197562 1.001872
-0.080326 -0.199126 1.009807
-0.069696 -0.199616 1.012291
-0.058947 -0.199878 1.013616
-0.048102 -0.199862 1.013540
-0.037296 -0.200040 1.014439
0.017144 -0.202299 1.025895
0.028140 -0.202473 1.026778
0.038648 -0.200020 1.014337
0.050616 -0.204545 1.037287
0.061783 -0.204786 1.038509
0.072345 -0.203254 1.030740
0.084939 -0.207083 1.050155
0.271494 -0.203793 1.033475
0.276038 -0.199098 1.009663
0.291095 -0.202054 1.024655
0.302582 -0.202408 1.026447
0.317885 -0.205199 1.040604
0.331889 -0.206992 1.049696
0.343967 -0.207506 1.052301
0.354341 -0.206991 1.049692
0.364007 -0.206108 1.045210
-0.111169 -0.185726 0.995864
-0.102365 -0.189137 1.014155
-0.091167 -0.188412 1.010265
-0.079266 -0.185843 0.996490
-0.067600 -0.183112 0.981847
-0.057337 -0.183873 0.985929
-0.047475 -0.186555 1.000311
-0.037915 -0.192334 1.031297
0.049698 -0.189942 1.018472
0.061405 -0.192493 1.032151
0.072469 -0.192561 1.032513
0.083745 -0.193098 1.035394
0.094782 -0.193022 1.034986
0.106058 -0.193400 1.037010
0.115754 -0.191096 1.024660
0.125888 -0.189853 1.017992
0.213400 -0.190219 1.019958
0.222801 -0.188940 1.013099
0.229937 -0.185949 0.997061
0.246823 -0.190758 1.022847
0.259602 -0.192120 1.030146
0.271678 -0.192871 1.034175
0.275502 -0.187934 1.007705
0.285466 -0.187400 1.004841
0.301036 -0.190451 1.021201
0.346542 -0.197720 1.060178
0.351013 -0.193926 1.039832
0.360669 -0.193141 1.035624
-0.118077 -0.169696 0.965266
-0.112547 -0.177245 1.008209
-0.102028 -0.177705 1.010822
-0.089519 -0.174396 0.992001
-0.079288 -0.175233 0.996762
-0.069125 -0.176505 1.003997
-0.057577 -0.174056 0.990067
-0.047970 -0.177691 1.010743
-0.037327 -0.178492 1.015300
-0.026432 -0.178247 1.013906
-0.015688 -0.179389 1.020402
-0.004802 -0.180417 1.026249
0.093671 -0.179821 1.022862
0.104299 -0.179286 1.019815
0.114510 -0.178202 1.013650
0.125529 -0.178455 1.015089
0.137318 -0.179675 1.022029
0.153144 -0.185608 1.055780
0.164755 -0.185968 1.057824
0.174433 -0.184240 1.047998
0.179123 -0.177771 1.011199
0.188081 -0.176033 1.001314
0.199954 -0.177064 1.007177
0.211997 -0.178132 1.013251
0.224960 -0.179831 1.022919
0.240419 -0.175153 0.996305
0.250856 -0.175001 0.995441
0.277071 -0.185419 1.054704
0.284599 -0.183006 1.040979
0.284924 -0.176318 1.002933
0.304553 -0.181627 1.033131
0.311213 -0.179101 1.018764
0.316720 -0.176104 1.001719
-0.281048 -0.164111 0.993967
-0.261090 -0.158450 0.959681
-0.120817 -0.163070 0.987663
-0.112858 -0.166922 1.010994
-0.101326 -0.165746 1.003870
-0.088815 -0.162498 0.984200
-0.079196 -0.164382 0.995612
-0.069324 -0.166243 1.006878
-0.059150 -0.167930 1.017101
-0.049315 -0.171560 1.039087
-0.015172 -0.162938 0.986861
-0.004692 -0.165572 1.002816
0.006295 -0.172750 1.046291
0.017409 -0.172001 1.041757
0.025754 -0.155152 0.939703
0.039344 -0.170490 1.032603
0.095180 -0.153656 0.930645
0.111404 -0.162821 0.986153
0.122780 -0.163928 0.992862
0.132759 -0.163141 0.988094
0.151382 -0.172310 1.043626
0.162800 -0.172582 1.045275
0.172869 -0.171480 1.038602
0.179449 -0.167260 1.013043
0.191381 -0.168225 1.018885
0.279614 -0.168862 1.022745
0.288328 -0.167570 1.014915
0.296955 -0.166322 1.007358
0.305799 -0.165279 1.001039
0.315611 -0.164812 0.998212
-0.316964 -0.150346 0.973672
-0.271338 -0.148178 0.959627
-0.253446 -0.143848 0.931585
-0.128736 -0.162503 1.052398
-0.110902 -0.153403 0.993465
-0.098415 -0.150555 0.975023
-0.086463 -0.147949 0.958143
-0.077649 -0.150731 0.976165
-0.069134 -0.155047 1.004114
-0.057284 -0.152099 0.985022
-0.047484 -0.154490 1.000507
-0.036799 -0.154554 1.000921
-0.026255 -0.155512 1.007127
0.006061 -0.155569 1.007494
0.017028 -0.157339 1.018956
0.027804 -0.156649 1.014490
0.039202 -0.158871 1.028881
0.050620 -0.160183 1.037372
0.060517 -0.157071 1.017223
0.084048 -0.160455 1.039136
0.088263 -0.148822 0.963802
0.278213 -0.151217 0.979310
0.282432 -0.147940 0.958090
0.302886 -0.153100 0.991506
0.313863 -0.153282 0.992684
0.299929 -0.141684 0.917575
-0.316849 -0.139882 0.973317
-0.269610 -0.137036 0.953515
-0.264605 -0.139779 0.972601
-0.033576 -0.131252 0.913270
-0.024251 -0.133694 0.930259
-0.015466 -0.144569 1.005933
-0.004834 -0.148458 1.032993
0.026927 -0.141205 0.982523
0.037451 -0.141263 0.982931
0.049024 -0.144387 1.004665
0.062818 -0.151752 1.055912
0.070475 -0.144306 1.004098
0.081948 -0.145610 1.013177
0.088405 -0.138738 0.965358
0.099462 -0.126535 0.880448
0.116512 -0.135405 0.942169
0.286036 -0.144701 1.006847
0.295211 -0.143924 1.001441
0.298832 -0.140588 0.978233
0.317568 -0.144349 1.004400
-0.260915 -0.127573 0.959038
-0.025425 -0.129733 0.975282
-0.014810 -0.128141 0.963314
-0.004582 -0.130271 0.979325
0.005691 -0.125829 0.945933
0.016591 -0.132062 0.992788
0.046776 -0.127514 0.958597
0.059131 -0.132214 0.993927
0.072277 -0.136983 1.029778
0.078609 -0.129283 0.971897
0.089246 -0.129635 0.974546
0.103908 -0.135148 1.015990
0.110908 -0.130596 0.981763
0.118819 -0.127811 0.960829
0.139289 -0.127736 0.960263
0.155473 -0.132786 0.998231
0.282147 -0.132111 0.993157
0.286235 -0.129163 0.970992
0.298916 -0.130162 0.978507
0.329984 -0.138831 1.043671
-0.306113 -0.115028 0.940338
-0.260434 -0.117099 0.957271
-0.262212 -0.122723 1.003246
-0.004571 -0.119509 0.976970
0.005702 -0.115949 0.947868
0.016105 -0.117886 0.963699
0.025258 -0.112737 0.921609
0.035268 -0.113229 0.925631
0.072900 -0.127055 1.038655
0.081277 -0.122923 1.004877
0.094112 -0.125711 1.027672
0.106108 -0.114898 0.939271
0.115946 -0.114693 0.937599
0.131711 -0.119916 0.980299
0.142366 -0.120060 0.981473
0.158585 -0.124554 1.018211
0.169975 -0.124922 1.021217
0.277028 -0.119285 0.975138
0.285347 -0.118409 0.967981
0.285346 -0.114263 0.934088
0.295231 -0.114222 0.933753
-0.307054 -0.105294 0.943230
-0.306892 -0.108813 0.974757
-0.261220 -0.107184 0.960159
-0.254702 -0.108786 0.974512
0.005867 -0.108860 0.975177
0.015948 -0.106534 0.954340
0.025216 -0.102710 0.920087
0.034550 -0.101225 0.906784
0.044821 -0.102536 0.918527
0.059200 -0.111083 0.995094
0.065650 -0.104415 0.935360
0.074203 -0.102412 0.917417
0.088650 -0.108062 0.968029
0.105306 -0.114942 1.029662
0.116787 -0.115405 1.033811
0.146461 -0.112714 1.009703
0.152959 -0.109632 0.982091
0.162998 -0.109320 0.979298
0.177734 -0.112006 1.003360
0.181882 -0.108094 0.968313
0.192535 -0.108260 0.969804
0.261580 -0.102786 0.920763
0.275935 -0.104492 0.936051
0.279787 -0.102242 0.915890
0.298911 -0.105535 0.945392
-0.269982 -0.100165 0.992366
-0.248462 -0.095953 0.950637
0.043726 -0.090448 0.896092
0.054534 -0.092525 0.916667
0.065812 -0.094644 0.937669
0.072453 -0.090417 0.895788
0.083326 -0.091841 0.909891
0.098199 -0.096915 0.960168
0.109154 -0.097528 0.966239
0.124404 -0.101540 1.005990
0.133321 -0.100157 0.992282
0.164253 -0.099607 0.986837
0.175359 -0.099921 0.989950
0.184059 -0.098907 0.979902
0.194902 -0.099092 0.981728
0.275939 -0.094483 0.936067
0.289057 -0.095509 0.946234
0.293687 -0.093756 0.928869
-0.269072 -0.089250 0.989021
-0.251564 -0.086857 0.962506
0.043797 -0.080995 0.897543
0.062567 -0.080443 0.891429
0.074344 -0.082945 0.919158
0.082964 -0.081753 0.905945
0.091870 -0.081062 0.898285
0.102249 -0.081678 0.905115
0.112302 -0.081950 0.908128
0.128372 -0.086220 0.955442
0.139049 -0.086505 0.958604
0.151402 -0.087722 0.972089
0.280396 -0.085836 0.951186
0.290959 -0.085951 0.952461
-0.292969 -0.074020 0.930535
-0.264984 -0.077477 0.973996
-0.252653 -0.076894 0.966671
0.071900 -0.070711 0.888944
0.081815 -0.071065 0.893392
0.094717 -0.073669 0.926124
0.107138 -0.075440 0.948392
0.111100 -0.071464 0.898409
0.127009 -0.075195 0.945304
0.136454 -0.074830 0.940716
0.145513 -0.074318 0.934281
0.266416 -0.074597 0.937786
0.280854 -0.075786 0.952737
-0.292872 -0.064046 0.930227
-0.259345 -0.065633 0.953269
-0.254069 -0.066929 0.972092
0.083079 -0.062461 0.907202
0.092831 -0.062494 0.907683
0.105521 -0.064312 0.934080
0.113324 -0.063094 0.916395
0.125087 -0.064099 0.930997
0.142896 -0.067826 0.985128
0.245007 -0.064213 0.932647
0.255036 -0.064227 0.932846
0.266214 -0.064518 0.937075
0.277277 -0.064761 0.940603
0.289121 -0.065163 0.946446
0.302650 -0.065905 0.957219
0.311926 -0.065702 0.954276
0.318605 -0.064983 0.943828
0.329411 -0.065123 0.945871
0.338559 -0.064938 0.943174
-0.308334 -0.056953 0.979336
-0.251869 -0.053839 0.925790
-0.251357 -0.055929 0.961715
0.075931 -0.054595 0.938778
0.096327 -0.054774 0.941860
0.099881 -0.051418 0.884151
0.110304 -0.051872 0.891968
0.122632 -0.053079 0.912722
0.134395 -0.053882 0.926520
0.145452 -0.054310 0.933888
0.221162 -0.053300 0.916506
0.231773 -0.053486 0.919714
0.245783 -0.054410 0.935603
0.255871 -0.054427 0.935900
0.265910 -0.054433 0.936003
0.277270 -0.054699 0.940579
-0.372307 -0.046620 0.982313
-0.361057 -0.046525 0.980293
-0.292899 -0.045705 0.963026
-0.255569 -0.046408 0.977827
-0.242318 -0.045879 0.966689
0.076480 -0.044877 0.945576
0.100722 -0.042315 0.891594
0.111709 -0.042872 0.903332
0.121167 -0.042800 0.901822
0.129275 -0.042297 0.891223
0.221559 -0.043575 0.918151
0.237039 -0.044641 0.940612
0.241558 -0.043640 0.919520
0.245313 -0.042585 0.897282
-0.371546 -0.036041 0.980305
-0.363892 -0.036323 0.987989
-0.353930 -0.036385 0.989680
-0.257937 -0.036283 0.986890
-0.244672 -0.035885 0.976078
0.120204 -0.032892 0.894651
0.129714 -0.032877 0.894252
0.216989 -0.033059 0.899210
0.232641 -0.033940 0.923161
-0.365875 -0.024475 0.938849
-0.354954 -0.024415 0.936528
-0.354914 -0.025121 0.963614
-0.356840 -0.026013 0.997817
-0.343918 -0.025844 0.991332
-0.262295 -0.026162 1.003563
-0.238196 -0.024772 0.950245
0.121251 -0.023526 0.902446
0.130722 -0.023494 0.901201
-0.370565 -0.014619 0.950884
-0.359034 -0.014564 0.947293
-0.360960 -0.015067 0.980029
-0.350153 -0.015053 0.979120
-0.297353 -0.014520 0.944458
-0.293065 -0.014814 0.963573
-0.256704 -0.015100 0.982170
-0.249928 -0.015329 0.997048
0.121790 -0.013936 0.906455
0.132075 -0.013999 0.910530
-0.369393 -0.004435 0.947877
-0.367223 -0.004534 0.968898
-0.367561 -0.004670 0.997952
-0.351711 -0.004602 0.983475
-0.305321 -0.004538 0.969766
-0.291945 -0.004491 0.959888
-0.297400 -0.004742 1.013464
-0.257180 -0.004604 0.983993
-0.253987 -0.004741 1.013237
-0.362456 0.005595 0.930075
-0.356912 0.005665 0.941693
-0.362162 0.005916 0.983293
-0.356587 0.005999 0.997110
-0.345579 0.005993 0.996119
-0.315086 0.006021 1.000783
-0.319748 0.006325 1.051304
-0.291184 0.005970 0.992282
-0.278570 0.005927 0.985201
-0.263639 0.006068 1.008704
-0.255104 0.006122 1.017695
-0.360158 0.015444 0.924178
-0.353570 0.015590 0.932877
-0.352986 0.016016 0.958380
-0.341314 0.015949 0.954404
-0.316808 0.016816 1.006251
-0.299891 0.016478 0.986016
-0.262823 0.016805 1.005584
-0.253455 0.016897 1.011115
-0.249970 0.017407 1.041657
-0.373459 0.026264 0.958311
-0.357779 0.025871 0.943981
-0.342936 0.025518 0.931094
-0.343089 0.026293 0.959367
-0.285182 0.025698 0.937655
-0.290106 0.027094 0.988609
-0.253863 0.027756 1.012742
-0.243031 0.027756 1.012743
-0.387168 0.035884 0.941795
-0.403216 0.038369 1.007030
-0.393677 0.038490 1.010190
-0.345078 0.035698 0.936909
-0.344223 0.036674 0.962537
-0.251581 0.038240 1.003641
-0.238224 0.037824 0.992712
-0.372702 0.044239 0.906606
-0.369385 0.045017 0.922538
-0.365483 0.045764 0.937842
-0.360788 0.046451 0.951921
-0.344687 0.045666 0.935846
-0.331046 0.045171 0.925692
-0.288161 0.047917 0.981980
-0.257795 0.050184 1.028432
-0.249177 0.050668 1.038354
-0.381852 0.055260 0.928862
-0.368733 0.054787 0.920908
-0.352894 0.055392 0.931092
-0.337955 0.054588 0.917570
-0.327593 0.054497 0.916036
-0.316706 0.054310 0.912896
-0.273852 0.053567 0.900401
-0.283413 0.057457 0.965798
-0.248918 0.059076 0.993015
-0.250731 0.062159 1.044828
-0.384011 0.065563 0.934116
-0.373022 0.065388 0.931621
-0.362088 0.065213 0.929132
-0.347590 0.064368 0.917097
-0.337958 0.064402 0.917576
-0.325042 0.063793 0.908904
-0.284125 0.065567 0.934177
-0.244693 0.068514 0.976161
-0.239368 0.070010 0.997476
-0.411096 0.080882 1.000000
-0.380110 0.076784 0.949324
-0.393057 0.081578 1.008598
-0.345882 0.073813 0.912593
-0.341829 0.075066 0.928088
-0.330837 0.074825 0.925107
-0.315503 0.073557 0.909428
-0.287967 0.076580 0.946811
-0.270997 0.074694 0.923488
-0.256566 0.073391 0.907381
-0.244613 0.072723 0.899116
-0.237143 0.076518 0.946042
-0.241164 0.081284 1.004964
-0.411096 0.091578 1.000000
-0.384939 0.088041 0.961383
-0.379809 0.089252 0.974604
-0.369322 0.089237 0.974438
-0.338258 0.084104 0.918391
-0.325360 0.083317 0.909793
-0.313905 0.082861 0.904819
-0.272799 0.085133 0.929630
-0.256627 0.083116 0.907599
-0.258343 0.094381 1.030615
-0.242483 0.092535 1.010459
-0.233606 0.093306 1.018875
-0.398725 0.101845 0.995814
-0.367686 0.096494 0.943495
-0.360201 0.097197 0.950371
-0.338548 0.094007 0.919180
-0.331952 0.094932 0.928226
-0.323271 0.095300 0.931818
-0.263949 0.091991 0.899470
-0.257601 0.093175 0.911043
-0.231589 0.098700 0.965063
-0.232786 0.103837 1.015299
-0.375628 0.103221 0.913723
-0.369907 0.104364 0.923842
-0.366497 0.106240 0.940445
-0.355521 0.105967 0.938024
-0.333579 0.102314 0.905688
-0.325203 0.102728 0.909354
-0.320523 0.104371 0.923896
-0.274109 0.105523 0.934095
-0.255797 0.102198 0.904663
-0.223911 0.105406 0.933066
-0.230381 0.113511 1.004809
-0.377465 0.113547 0.918192
-0.371512 0.114741 0.927849
-0.369816 0.117351 0.948961
-0.358219 0.116879 0.945141
-0.342070 0.114851 0.928741
-0.329351 0.113888 0.920950
-0.322831 0.115074 0.930548
-0.275795 0.116223 0.939839
-0.255350 0.111678 0.903083
-0.229034 0.118026 0.954417
-0.230288 0.124208 1.004404
-0.386611 0.126356 0.940440
-0.374750 0.125751 0.935936
-0.354909 0.125814 0.936409
-0.342156 0.124815 0.928975
-0.329306 0.123721 0.920826
-0.281443 0.128861 0.959086
-0.261015 0.124029 0.923119
-0.245904 0.121441 0.903863
-0.221242 0.123871 0.921944
-0.225338 0.132049 0.982815
-0.386442 0.136354 0.940027
-0.389798 0.141212 0.973518
-0.361446 0.134535 0.927485
-0.356912 0.136596 0.941692
-0.343260 0.135186 0.931973
-0.339525 0.137714 0.949402
-0.274012 0.135446 0.933764
-0.257098 0.131892 0.909264
-0.250002 0.133293 0.918926
-0.221026 0.133601 0.921044
-0.231659 0.146560 1.010383
-0.406151 0.153875 0.987971
-0.390551 0.151917 0.975399
-0.365457 0.146058 0.937777
-0.357849 0.147052 0.944165
-0.346630 0.146579 0.941123
-0.342029 0.148958 0.956403
-0.309064 0.138751 0.890866
-0.257923 0.142071 0.912181
-0.248783 0.142424 0.914446
-0.229479 0.148937 0.956267
-0.232339 0.157828 1.013350
-0.220747 0.157291 1.009901
-0.382765 0.154973 0.931083
-0.383419 0.159385 0.957588
-0.362988 0.155033 0.931441
-0.340290 0.153779 0.923908
-0.324277 0.150925 0.906765
-0.310099 0.148776 0.893850
-0.241175 0.167277 1.005008
-0.220705 0.160220 0.962608
-0.226129 0.172190 1.034521
-0.382471 0.164805 0.930368
-0.372525 0.164806 0.930378
-0.377568 0.171622 0.968854
-0.357640 0.167151 0.943613
-0.346791 0.166787 0.941560
-0.325179 0.161070 0.909286
-0.329762 0.168376 0.950529
-0.217966 0.168399 0.950661
-0.229683 0.186135 1.050784
-0.384308 0.175594 0.934837
-0.411950 0.198556 1.057080
-0.353233 0.175059 0.931988
-0.338061 0.172405 0.917858
-0.326717 0.171603 0.913587
-0.314765 0.170422 0.907299
-0.305724 0.170792 0.909270
-0.216083 0.177024 0.942449
-0.217223 0.186666 0.993780
-0.383660 0.185280 0.933260
-0.368140 0.182534 0.919429
-0.367236 0.187083 0.942343
-0.350829 0.183767 0.925643
-0.345769 0.186376 0.938785
-0.333258 0.185005 0.931876
-0.311082 0.183681 0.925206
-0.297115 0.181198 0.912700
-0.209717 0.181592 0.914684
-0.216929 0.197028 0.992436
-0.382862 0.194855 0.931321
-0.380843 0.199005 0.951155
-0.363498 0.206488 0.986920
-0.336007 0.196580 0.939562
-0.324586 0.195752 0.935609
-0.311853 0.194056 0.927500
-0.298667 0.191957 0.917467
-0.214556 0.195790 0.935789
-0.207579 0.198692 0.949657
-0.391275 0.209316 0.951785
-0.366638 0.201376 0.915677
-0.363250 0.204990 0.932114
-0.351697 0.209997 0.954880
-0.329797 0.202810 0.922199
-0.317162 0.201053 0.914209
-0.261446 0.211341 0.960989
-0.239074 0.201164 0.914716
-0.229260 0.201138 0.914596
-0.209626 0.201070 0.914288
-0.207563 0.208832 0.949583
-0.195488 0.206802 0.940354
-0.411301 0.230730 1.000497
-0.406211 0.233961 1.014510
-0.371437 0.219804 0.953121
-0.355696 0.222713 0.965737
-0.337477 0.217625 0.943673
-0.323805 0.215246 0.933357
-0.260479 0.220799 0.957437
-0.241219 0.212841 0.922926
-0.223662 0.224966 0.975506
-0.208288 0.219753 0.952900
-0.193729 0.214908 0.931891
-0.392378 0.230323 0.954467
-0.376199 0.226724 0.939555
-0.358504 0.221990 0.919935
-0.357795 0.234418 0.971437
-0.332491 0.224354 0.929732
-0.322401 0.224252 0.929311
-0.331509 0.237922 0.985960
-0.319326 0.236708 0.980927
-0.251332 0.214494 0.888871
-0.212110 0.223241 0.925120
-0.203155 0.224278 0.929420
-0.191719 0.222542 0.922225
-0.379412 0.232583 0.922928
-0.362368 0.228068 0.905013
-0.368823 0.238502 0.946415
-0.348629 0.238536 0.946550
-0.335271 0.236256 0.937504
-0.328800 0.246436 0.977901
-0.322149 0.249384 0.989598
-0.249621 0.222476 0.882821
-0.242259 0.224402 0.890465
-0.231460 0.223173 0.885587
-0.200742 0.231436 0.918379
-0.195674 0.237199 0.941247
-0.375314 0.239835 0.912958
-0.358035 0.234904 0.894190
-0.369930 0.249369 0.949253
-0.355661 0.246516 0.938393
-0.349011 0.248932 0.947587
-0.329035 0.241702 0.920067
-0.313148 0.244666 0.931351
-0.237864 0.229682 0.874309
-0.227032 0.228193 0.868644
-0.221434 0.242405 0.922743
-0.201713 0.242426 0.922824
-0.190319 0.240499 0.915488
-0.352719 0.240838 0.880915
-0.358999 0.251854 0.921206
-0.370146 0.267001 0.976611
-0.344080 0.255406 0.934199
-0.332330 0.254062 0.929283
-0.322911 0.254471 0.930780
-0.262404 0.263694 0.964514
-0.221498 0.252347 0.923011
-0.194212 0.242913 0.888504
-0.194257 0.255470 0.934433
-0.390553 0.269895 0.950029
-0.338984 0.247115 0.869846
-0.354190 0.265486 0.934512
-0.344476 0.265703 0.935274
-0.328190 0.260712 0.917705
-0.319473 0.261611 0.920869
-0.316285 0.267239 0.940680
-0.260925 0.272464 0.959074
-0.202234 0.262843 0.925207
-0.196556 0.268605 0.945490
-0.169411 0.244066 0.859114
-0.368608 0.264319 0.896648
-0.353385 0.260172 0.882579
-0.335494 0.260940 0.885185
-0.342672 0.274262 0.930375
-0.325740 0.268507 0.910854
-0.318771 0.270863 0.918847
-0.309905 0.271706 0.921707
-0.241684 0.272589 0.924702
-0.233761 0.274903 0.932551
-0.229327 0.281708 0.955635
-0.213278 0.287632 0.975731
-0.195890 0.277773 0.942286
-0.184932 0.276458 0.937824
-0.401156 0.298095 0.975821
-0.350780 0.267623 0.876071
-0.359389 0.281716 0.922205
-0.340898 0.274762 0.899441
-0.337659 0.280054 0.916765
-0.348991 0.298110 0.975869
-0.335484 0.295407 0.967022
-0.314684 0.285906 0.935919
-0.294961 0.276791 0.906080
-0.246954 0.300955 0.985183
-0.233077 0.296702 0.971261
-0.212093 0.296411 0.970308
-0.198416 0.291562 0.954436
-0.193143 0.299208 0.979464
0.412433 0.305481 1.000000
