3
-0.397247 -0.293898 0.966311
-0.405128 -0.307735 1.011806
-0.213297 -0.296790 0.975820
-0.152996 -0.301356 0.990833
-0.144483 -0.305767 1.005335
-0.134244 -0.306941 1.009193
-0.123284 -0.306526 1.007830
-0.110940 -0.302263 0.993813
-0.098389 -0.296470 0.974769
0.162697 -0.317714 1.044615
0.160812 -0.293853 0.966164
0.174412 -0.299462 0.984605
0.183680 -0.297418 0.977883
0.195994 -0.300259 0.987227
0.226726 -0.299016 0.983138
0.244319 -0.307936 1.012468
0.284091 -0.304144 1.000000
-0.393302 -0.280747 0.956715
-0.386730 -0.283430 0.965857
-0.224004 -0.300727 1.024800
-0.153304 -0.291344 0.992825
-0.144395 -0.294835 1.004722
-0.134247 -0.296152 1.009211
0.163526 -0.308102 1.049932
0.167321 -0.294996 1.005271
0.185112 -0.306658 1.045011
0.200320 -0.296095 1.009017
0.233740 -0.297426 1.013552
0.237501 -0.288817 0.984213
0.246363 -0.286879 0.977612
0.272448 -0.292432 0.996535
0.282464 -0.291769 0.994273
0.297784 -0.296433 1.010170
0.312417 -0.300111 1.022703
0.314281 -0.291690 0.994003
0.325148 -0.291902 0.994726
0.339459 -0.295094 1.005607
0.353321 -0.297712 1.014526
0.363885 -0.297478 1.013729
0.375285 -0.297921 1.015238
0.383318 -0.295741 1.007811
0.398286 -0.298885 1.018523
0.406571 -0.296979 1.012030
0.418712 -0.297916 1.015223
-0.381421 -0.269351 0.952598
-0.239294 -0.309545 1.094750
0.049953 -0.289455 1.023698
0.059825 -0.284335 1.005593
0.071662 -0.288695 1.021013
0.081922 -0.286388 1.012853
0.171532 -0.311409 1.101342
0.176564 -0.281836 0.996754
0.189619 -0.285441 1.009503
0.201510 -0.272329 0.963129
0.226652 -0.291410 1.030613
0.233471 -0.286256 1.012384
0.240998 -0.282388 0.998705
0.244157 -0.273948 0.968855
0.271343 -0.280631 0.992490
0.281241 -0.279917 0.989967
0.299403 -0.287183 1.015663
0.338733 -0.313532 1.108850
0.330886 -0.295909 1.046524
0.337308 -0.282537 0.999232
0.353521 -0.287024 1.015100
0.360458 -0.283936 1.004181
0.377025 -0.288393 1.019945
0.384955 -0.286179 1.012114
0.398456 -0.288114 1.018958
0.409365 -0.288122 1.018986
0.424735 -0.291188 1.029828
-0.369227 -0.250877 0.922144
-0.216137 -0.282855 1.039683
-0.037196 -0.275252 1.011737
-0.026352 -0.275009 1.010844
-0.015467 -0.273700 1.006031
-0.004710 -0.273842 1.006554
0.005999 -0.271284 0.997152
0.016859 -0.274472 1.008870
0.027628 -0.274256 1.008076
0.039057 -0.278879 1.025068
0.049434 -0.275613 1.013064
0.061113 -0.279472 1.027249
0.071564 -0.277397 1.019621
0.082482 -0.277441 1.019782
0.092186 -0.273867 1.006648
0.143827 -0.269758 0.991542
0.167014 -0.291737 1.072331
0.169460 -0.276989 1.018122
0.178883 -0.274737 1.009842
0.190089 -0.275325 1.012004
0.199393 -0.273242 1.004349
0.248343 -0.279988 1.029144
0.254305 -0.274542 1.009127
0.267274 -0.276795 1.017409
0.279313 -0.277947 1.021643
0.307692 -0.283970 1.043782
0.326610 -0.281037 1.033000
0.330996 -0.275492 1.012619
0.337625 -0.272106 1.000173
0.368294 -0.279135 1.026011
0.369359 -0.271843 0.999206
0.390738 -0.279491 1.027318
0.395950 -0.275473 1.012549
0.407593 -0.276024 1.014573
-0.373311 -0.243681 0.932343
-0.371897 -0.249420 0.954302
-0.365981 -0.252379 0.965622
-0.363373 -0.257856 0.986580
-0.356068 -0.260229 0.995658
-0.369579 -0.278430 1.065298
-0.342102 -0.265928 1.017463
-0.195224 -0.245443 0.939086
-0.188095 -0.263602 1.008565
-0.176132 -0.261854 1.001876
-0.166587 -0.263707 1.008966
-0.147835 -0.250231 0.957407
-0.142181 -0.258571 0.989316
-0.088561 -0.256499 0.981388
-0.078164 -0.256825 0.982635
-0.070170 -0.266375 1.019173
-0.058837 -0.264427 1.011720
-0.047482 -0.261483 1.000456
-0.037219 -0.264591 1.012347
-0.026359 -0.264269 1.011117
-0.015538 -0.264144 1.010638
-0.004732 -0.264290 1.011197
0.006136 -0.266591 1.020001
0.016813 -0.262948 1.006061
0.027865 -0.265741 1.016750
0.038611 -0.264855 1.013358
0.049132 -0.263158 1.006865
0.059806 -0.262742 1.005274
0.073105 -0.272230 1.041574
0.085800 -0.277255 1.060801
0.094419 -0.269473 1.031028
0.103091 -0.263456 1.008004
0.130595 -0.276015 1.056058
0.144294 -0.259996 0.994767
0.155894 -0.261607 1.000932
0.166099 -0.260823 0.997930
0.179298 -0.264550 1.012190
0.188979 -0.262956 1.006092
0.200127 -0.263467 1.008049
0.208914 -0.260976 0.998516
0.219661 -0.261056 0.998823
0.241369 -0.273551 1.046631
0.246223 -0.266685 1.020359
0.256744 -0.266278 1.018803
0.291736 -0.290252 1.110528
0.279772 -0.267460 1.023324
0.289610 -0.266442 1.019429
0.316865 -0.280939 1.074899
0.321049 -0.274683 1.050961
0.325183 -0.268809 1.028487
0.327459 -0.261833 1.001796
0.343391 -0.265873 1.017255
0.351347 -0.263679 1.008857
0.377405 -0.274796 1.051392
0.375518 -0.265511 1.015868
0.383170 -0.263303 1.007421
0.397806 -0.265884 1.017296
0.408892 -0.266018 1.017808
0.420365 -0.266390 1.019231
-0.360043 -0.245039 0.977541
-0.353571 -0.247830 0.988676
-0.357534 -0.258333 1.030578
-0.342130 -0.255067 1.017547
-0.205006 -0.247194 0.986138
-0.200217 -0.254513 1.015338
-0.188686 -0.253611 1.011737
-0.176184 -0.251213 1.002171
-0.168199 -0.255362 1.018725
-0.151904 -0.246597 0.983757
-0.142605 -0.248730 0.992268
-0.134859 -0.254131 1.013812
-0.026174 -0.251674 1.004011
-0.015584 -0.254094 1.013666
-0.004731 -0.253426 1.011002
0.006093 -0.253881 1.012817
0.016800 -0.251995 1.005291
0.027503 -0.251551 1.003520
0.038372 -0.252445 1.007087
0.048879 -0.251092 1.001688
0.059653 -0.251348 1.002711
0.068997 -0.246419 0.983048
0.079999 -0.247931 0.989079
0.092519 -0.253247 1.010285
0.102083 -0.250204 0.998148
0.112632 -0.249922 0.997023
0.136141 -0.253995 1.013271
0.149500 -0.258352 1.030653
0.156958 -0.252615 1.007766
0.161812 -0.243693 0.972174
0.181439 -0.256754 1.024276
0.190208 -0.253836 1.012636
0.201001 -0.253789 1.012449
0.215795 -0.258541 1.031406
0.222220 -0.253290 1.010457
0.234317 -0.254692 1.016053
0.247327 -0.256919 1.024935
0.253684 -0.252338 1.006660
0.277028 -0.264340 1.054539
0.278660 -0.255495 1.019253
0.291006 -0.256770 1.024342
0.309001 -0.262756 1.048220
0.319697 -0.262334 1.046536
0.324621 -0.257364 1.026709
0.325139 -0.249340 0.994700
0.347215 -0.257833 1.028582
0.351017 -0.252651 1.007910
0.364822 -0.254764 1.016340
0.373072 -0.252988 1.009252
0.383943 -0.253038 1.009453
0.395241 -0.253360 1.010737
0.400017 -0.249595 0.995716
0.415303 -0.252412 1.006958
-0.344455 -0.245844 1.024463
-0.192434 -0.222134 0.925663
-0.189087 -0.230109 0.958894
-0.182277 -0.234542 0.977369
-0.175723 -0.239865 0.999550
-0.165059 -0.239904 0.999710
-0.152656 -0.237244 0.988627
-0.141601 -0.236440 0.985277
-0.133368 -0.240598 1.002603
-0.122419 -0.240156 1.000760
-0.112314 -0.241441 1.006117
0.026855 -0.235149 0.979898
0.037954 -0.239045 0.996133
0.049393 -0.242906 1.012220
0.060218 -0.242901 1.012198
0.091648 -0.240158 1.000771
0.102441 -0.240368 1.001645
0.113864 -0.241877 1.007933
0.124169 -0.240955 1.004093
0.135557 -0.242114 1.008920
0.145848 -0.241288 1.005478
0.154859 -0.238602 0.994287
0.167267 -0.241160 1.004946
0.178878 -0.242329 1.009815
0.190381 -0.243227 1.013560
0.199351 -0.240967 1.004139
0.212639 -0.243890 1.016322
0.221968 -0.242208 1.009314
0.231690 -0.241092 1.004663
0.250620 -0.249232 1.038582
0.254303 -0.242161 1.009116
0.269519 -0.246201 1.025953
0.277683 -0.243737 1.015682
0.286637 -0.242124 1.008961
0.296591 -0.241442 1.006122
0.309545 -0.243166 1.013303
0.311258 -0.236240 0.984445
0.336554 -0.247082 1.029623
0.341325 -0.242645 1.011132
0.349030 -0.240502 1.002205
0.363806 -0.243215 1.013508
0.373394 -0.242402 1.010123
0.383186 -0.241764 1.007461
0.400874 -0.246007 1.025141
0.406259 -0.242674 1.011254
0.419051 -0.243824 1.016046
-0.196112 -0.228022 0.994522
-0.184417 -0.226721 0.988847
-0.174047 -0.226989 0.990014
-0.165560 -0.229907 1.002743
-0.154935 -0.230054 1.003386
-0.146184 -0.233214 1.017166
-0.134202 -0.231313 1.008877
-0.122632 -0.229852 1.002502
-0.111307 -0.228612 0.997097
-0.100241 -0.227701 0.993120
-0.090359 -0.229580 1.001315
-0.076306 -0.219941 0.959278
-0.049299 -0.238163 1.038750
-0.039047 -0.243509 1.062067
0.027206 -0.227600 0.992680
0.038006 -0.228700 0.997479
0.146912 -0.232215 1.012810
0.156246 -0.230011 1.003195
0.176875 -0.228936 0.998509
0.188434 -0.230010 1.003191
0.198870 -0.229671 1.001716
0.210846 -0.231055 1.007750
0.223033 -0.232524 1.014157
0.232428 -0.231081 1.007863
0.239501 -0.227560 0.992504
0.254159 -0.231238 1.008548
0.271033 -0.236551 1.031720
0.277154 -0.232430 1.013746
0.285220 -0.230189 1.003975
0.296740 -0.230798 1.006629
0.302288 -0.226881 0.989546
0.323629 -0.234682 1.023571
0.329974 -0.231454 1.009490
0.337846 -0.229467 1.000826
0.350713 -0.230892 1.007038
0.356678 -0.227822 0.993651
0.407073 -0.232323 1.013280
0.417683 -0.232196 1.012729
-0.209398 -0.220170 1.007263
-0.197498 -0.218922 1.001551
-0.182001 -0.213313 0.975892
-0.175642 -0.218384 0.999089
-0.155747 -0.220474 1.008650
-0.143865 -0.218808 1.001031
-0.131602 -0.216250 0.989329
-0.121085 -0.216365 0.989852
-0.110705 -0.216770 0.991708
-0.100577 -0.217806 0.996445
-0.090469 -0.219137 1.002535
-0.077982 -0.214287 0.980347
-0.069302 -0.220016 1.006558
-0.059155 -0.222340 1.017190
-0.048265 -0.222291 1.016965
-0.036997 -0.219966 1.006328
-0.025937 -0.217474 0.994926
-0.015275 -0.217170 0.993538
-0.004659 -0.217644 0.995704
0.005965 -0.216720 0.991479
0.027175 -0.216736 0.991553
0.037849 -0.217133 0.993367
0.047207 -0.211462 0.967422
0.058331 -0.214319 0.980493
0.273023 -0.218285 0.998635
0.287028 -0.220843 1.010340
0.293493 -0.217624 0.995612
0.307481 -0.220014 1.006546
0.321331 -0.222146 1.016302
-0.206613 -0.206613 0.993869
-0.198678 -0.209453 1.007531
-0.182330 -0.203243 0.977656
-0.175157 -0.207125 0.996329
-0.165266 -0.208088 1.000962
-0.154765 -0.208363 1.002287
-0.145721 -0.210787 1.013946
-0.133037 -0.207912 1.000117
-0.123102 -0.209206 1.006343
-0.112721 -0.209918 1.009766
-0.102189 -0.210469 1.012415
-0.090423 -0.208309 1.002025
-0.080074 -0.209268 1.006640
-0.069565 -0.210046 1.010384
-0.058932 -0.210665 1.013361
-0.048196 -0.211112 1.015510
-0.037067 -0.209596 1.008218
-0.025937 -0.206827 0.994899
-0.015097 -0.204132 0.981934
-0.004628 -0.205604 0.989014
0.005937 -0.205164 0.986899
0.016467 -0.204846 0.985370
0.027186 -0.206218 0.991970
0.037396 -0.204038 0.981481
0.048127 -0.205032 0.986265
0.297333 -0.209684 1.008641
0.293915 -0.200016 0.962137
0.343289 -0.211412 1.016951
0.345476 -0.206225 0.992000
0.354785 -0.205471 0.988377
0.361448 -0.203274 0.977805
-0.207910 -0.197213 1.000106
-0.162115 -0.193619 0.981876
-0.155580 -0.198684 1.007564
-0.145788 -0.200034 1.014410
-0.134546 -0.199453 1.011465
-0.123120 -0.198472 1.006487
-0.111319 -0.196642 0.997206
-0.101426 -0.198150 1.004857
-0.090354 -0.197441 1.001262
-0.079891 -0.198049 1.004343
-0.069487 -0.199016 1.009245
-0.058926 -0.199808 1.013262
-0.048102 -0.199862 1.013540
-0.037296 -0.200040 1.014439
0.016254 -0.191799 0.972646
0.026851 -0.193195 0.979725
0.037170 -0.192370 0.975546
0.048570 -0.196278 0.995361
0.059864 -0.198427 1.006261
0.069344 -0.194823 0.987983
0.080406 -0.196030 0.994105
0.262054 -0.196707 0.997537
0.268859 -0.193920 0.983407
0.274857 -0.190783 0.967496
0.292863 -0.195906 0.993477
0.304692 -0.196683 0.997417
0.316950 -0.197675 1.002447
0.329731 -0.198918 1.008749
0.347282 -0.202868 1.028781
0.361202 -0.204519 1.037156
-0.110949 -0.185359 0.993894
-0.101691 -0.187893 1.007484
-0.090796 -0.187644 1.006149
-0.078121 -0.183157 0.982091
-0.067537 -0.182939 0.980921
-0.057198 -0.183428 0.983540
-0.047278 -0.185784 0.996173
-0.037477 -0.190108 1.019361
0.048111 -0.183876 0.985945
0.058637 -0.183817 0.985626
0.069103 -0.183617 0.984555
0.079306 -0.182861 0.980505
0.089935 -0.183152 0.982064
0.101324 -0.184767 0.990724
0.111924 -0.184774 0.990759
0.120056 -0.181057 0.970830
0.212437 -0.189360 1.015352
0.220018 -0.186581 1.000448
0.227910 -0.184310 0.988273
0.245490 -0.189728 1.017321
0.253622 -0.187694 1.006415
0.263692 -0.187201 1.003772
0.268876 -0.183414 0.983467
0.271481 -0.178220 0.955615
0.286800 -0.181445 0.972910
0.326431 -0.186246 0.998653
0.342112 -0.189008 1.013463
0.358975 -0.192234 1.030762
-0.118854 -0.170812 0.971617
-0.112074 -0.176500 1.003968
-0.101803 -0.177313 1.008591
-0.089209 -0.173793 0.988573
-0.079195 -0.175028 0.995595
-0.069019 -0.176232 1.002445
-0.057511 -0.173856 0.988932
-0.048053 -0.177999 1.012495
-0.036770 -0.175828 1.000146
-0.025936 -0.174902 0.994877
-0.015349 -0.175513 0.998358
-0.004717 -0.177229 1.008114
0.089333 -0.171494 0.975493
0.098862 -0.169939 0.966651
0.107876 -0.167878 0.954924
0.118226 -0.168072 0.956032
0.133392 -0.174538 0.992807
0.146066 -0.177029 1.006978
0.157146 -0.177379 1.008970
0.169060 -0.178565 1.015716
0.178666 -0.177318 1.008620
0.186226 -0.174297 0.991438
0.198388 -0.175677 0.999288
0.210513 -0.176885 1.006157
0.223646 -0.178781 1.016942
0.234385 -0.170757 0.971301
0.240828 -0.168004 0.955645
0.267512 -0.179022 1.018316
0.278175 -0.178875 1.017480
0.283252 -0.175283 0.997045
0.299646 -0.178700 1.016486
0.308069 -0.177291 1.008471
0.315235 -0.175279 0.997024
-0.279412 -0.163155 0.988180
-0.259328 -0.157381 0.953204
-0.120685 -0.162892 0.986585
-0.112892 -0.166972 1.011299
-0.101027 -0.165256 1.000903
-0.088736 -0.162353 0.983322
-0.079097 -0.164176 0.994364
-0.069150 -0.165825 1.004349
-0.058155 -0.165106 0.999994
-0.047988 -0.166945 1.011132
-0.014923 -0.160260 0.970643
-0.004566 -0.161119 0.975844
0.006121 -0.167999 1.017517
0.016849 -0.166471 1.008262
0.025571 -0.154053 0.933047
0.038043 -0.164852 0.998458
0.092935 -0.150033 0.908702
0.108826 -0.159053 0.963332
0.116242 -0.155198 0.939985
0.123590 -0.151874 0.919854
0.141267 -0.160797 0.973893
0.152915 -0.162103 0.981803
0.167188 -0.165845 1.004472
0.179271 -0.167094 1.012034
0.188138 -0.165374 1.001618
0.275457 -0.166351 1.007538
0.284219 -0.165181 1.000450
0.290378 -0.162638 0.985046
0.304250 -0.164441 0.995969
0.315266 -0.164632 0.997121
-0.316826 -0.150281 0.973249
-0.270816 -0.147892 0.957779
-0.254306 -0.144336 0.934745
-0.128714 -0.162475 1.052217
-0.110364 -0.152659 0.988651
-0.097951 -0.149845 0.970427
-0.086395 -0.147831 0.957380
-0.077554 -0.150546 0.974967
-0.069114 -0.155004 1.003836
-0.055744 -0.148010 0.958541
-0.046233 -0.150420 0.974150
-0.036435 -0.153029 0.991043
-0.025930 -0.153584 0.994639
0.005821 -0.149409 0.967598
0.016430 -0.151816 0.983189
0.027026 -0.152268 0.986116
0.037964 -0.153855 0.996392
0.049274 -0.155921 1.009775
0.058872 -0.152804 0.989585
0.082292 -0.157102 1.017423
0.087256 -0.147125 0.952809
0.278833 -0.151554 0.981493
0.280898 -0.147137 0.952886
0.299366 -0.151321 0.979981
0.313587 -0.153147 0.991811
0.296044 -0.139849 0.905690
-0.316921 -0.139914 0.973541
-0.269415 -0.136937 0.952825
-0.264763 -0.139863 0.973185
-0.033480 -0.130875 0.910648
-0.024110 -0.132912 0.924823
-0.015182 -0.141918 0.987486
-0.004674 -0.143549 0.998832
0.025948 -0.136067 0.946775
0.036207 -0.136570 0.950272
0.047487 -0.139859 0.973155
0.060475 -0.146091 1.016520
0.067532 -0.138280 0.962169
0.079170 -0.140674 0.978828
0.086949 -0.136454 0.949463
0.100460 -0.127804 0.889280
0.115770 -0.134544 0.936173
0.284457 -0.143902 1.001290
0.292208 -0.142460 0.991255
0.297574 -0.139996 0.974114
0.316609 -0.143913 1.001367
-0.261081 -0.127654 0.959649
-0.025001 -0.127569 0.959015
-0.014480 -0.125285 0.941839
-0.004458 -0.126734 0.952730
0.005663 -0.125208 0.941260
0.016418 -0.130684 0.982430
0.045234 -0.123310 0.926997
0.056968 -0.127377 0.957567
0.070321 -0.133274 1.001901
0.076731 -0.126194 0.948674
0.087616 -0.127267 0.956744
0.100682 -0.130952 0.984443
0.109236 -0.128627 0.966966
0.118145 -0.127086 0.955379
0.138081 -0.126627 0.951932
0.151836 -0.129680 0.974879
0.279175 -0.130720 0.982698
0.275461 -0.124301 0.934444
0.297651 -0.129612 0.974368
0.329783 -0.138746 1.043033
-0.300704 -0.112996 0.923723
-0.260451 -0.117107 0.957335
-0.260084 -0.121727 0.995102
-0.004477 -0.117054 0.956903
0.005623 -0.114339 0.934707
0.015869 -0.116162 0.949609
0.025214 -0.112541 0.920008
0.035167 -0.112905 0.922982
0.072316 -0.126036 1.030325
0.079278 -0.119899 0.980159
0.091022 -0.121583 0.993928
0.104405 -0.113054 0.924201
0.114578 -0.113339 0.926531
0.129262 -0.117686 0.962070
0.139794 -0.117890 0.963739
0.156754 -0.123116 1.006455
0.170563 -0.125353 1.024748
0.275681 -0.118705 0.970397
0.275033 -0.114129 0.932993
0.279113 -0.111767 0.913683
0.288798 -0.111734 0.913407
-0.304633 -0.104464 0.935793
-0.304737 -0.108049 0.967911
-0.260949 -0.107073 0.959166
-0.252120 -0.107683 0.964633
0.005799 -0.107610 0.963981
0.015926 -0.106385 0.953010
0.025172 -0.102529 0.918464
0.034466 -0.100980 0.904587
0.044704 -0.102268 0.916127
0.058566 -0.109893 0.984431
0.065249 -0.103777 0.929645
0.073327 -0.101203 0.906587
0.085926 -0.104742 0.938291
0.101607 -0.110905 0.993495
0.112909 -0.111573 0.999479
0.141595 -0.108969 0.976157
0.151113 -0.108308 0.970234
0.160720 -0.107792 0.965613
0.175868 -0.110830 0.992825
0.178161 -0.105882 0.948502
0.187570 -0.105469 0.944797
0.260544 -0.102378 0.917114
0.271939 -0.102979 0.922495
0.279294 -0.102061 0.914275
0.297517 -0.105043 0.940984
-0.270690 -0.100428 0.994969
-0.247750 -0.095678 0.947911
0.043399 -0.089771 0.889388
0.054299 -0.092126 0.912715
0.065519 -0.094222 0.933486
0.072453 -0.090417 0.895788
0.082722 -0.091175 0.903301
0.096069 -0.094813 0.939344
0.105792 -0.094525 0.936482
0.119298 -0.097373 0.964698
0.127803 -0.096011 0.951211
0.162067 -0.098281 0.973703
0.173178 -0.098679 0.977639
0.180198 -0.096832 0.959346
0.189332 -0.096260 0.953673
0.275147 -0.094211 0.933379
0.288422 -0.095299 0.944155
0.291178 -0.092955 0.920936
-0.268814 -0.089164 0.988073
-0.250788 -0.086589 0.959537
0.042948 -0.079425 0.880145
0.062352 -0.080167 0.888366
0.073873 -0.082420 0.913338
0.082879 -0.081669 0.905017
0.090981 -0.080278 0.889594
0.101074 -0.080739 0.894712
0.111249 -0.081182 0.899613
0.124239 -0.083444 0.924685
0.135402 -0.084236 0.933463
0.146947 -0.085141 0.943487
0.281245 -0.086095 0.954064
0.290786 -0.085900 0.951894
-0.295456 -0.074648 0.938435
-0.264774 -0.077415 0.973223
-0.251128 -0.076430 0.960839
0.071617 -0.070434 0.885451
0.081607 -0.070884 0.891119
0.094534 -0.073526 0.924328
0.106811 -0.075210 0.945497
0.110601 -0.071143 0.894375
0.124551 -0.073739 0.927006
0.135945 -0.074551 0.937209
0.145029 -0.074070 0.931171
0.264952 -0.074187 0.932631
0.280156 -0.075598 0.950370
-0.295036 -0.064520 0.937099
-0.260876 -0.066020 0.958897
-0.254055 -0.066925 0.972037
0.081118 -0.060987 0.885787
0.092399 -0.062203 0.903459
0.104519 -0.063701 0.925209
0.110796 -0.061687 0.895953
0.122965 -0.063012 0.915201
0.141635 -0.067228 0.976433
0.239609 -0.062798 0.912101
0.249132 -0.062740 0.911252
0.261234 -0.063311 0.919543
0.271431 -0.063396 0.920774
0.281936 -0.063543 0.922923
0.295636 -0.064377 0.935036
0.302051 -0.063622 0.924065
0.304308 -0.062067 0.901474
0.314738 -0.062223 0.903738
0.322142 -0.061789 0.897438
-0.308862 -0.057051 0.981015
-0.250896 -0.053631 0.922214
-0.250741 -0.055792 0.959358
0.075834 -0.054525 0.937585
0.094457 -0.053711 0.923580
0.098223 -0.050565 0.869479
0.108769 -0.051151 0.879557
0.121206 -0.052462 0.902107
0.133717 -0.053610 0.921844
0.145247 -0.054234 0.932573
0.215789 -0.052004 0.894237
0.224841 -0.051886 0.892208
0.240317 -0.053200 0.914794
0.249957 -0.053169 0.914268
0.259807 -0.053184 0.914521
0.268681 -0.053005 0.911443
-0.367322 -0.045996 0.969161
-0.359531 -0.046328 0.976148
-0.293194 -0.045751 0.963996
-0.255735 -0.046438 0.978465
-0.242394 -0.045893 0.966991
0.076046 -0.044622 0.940200
0.097690 -0.041041 0.864756
0.109993 -0.042214 0.889460
0.120114 -0.042428 0.893984
0.127175 -0.041610 0.876745
0.219153 -0.043102 0.908180
0.232592 -0.043804 0.922965
0.235577 -0.042560 0.896752
0.240075 -0.041676 0.878121
-0.368122 -0.035708 0.971271
-0.362918 -0.036226 0.985346
-0.352918 -0.036281 0.986850
-0.258308 -0.036335 0.988309
-0.243533 -0.035718 0.971533
0.118809 -0.032510 0.884272
0.127260 -0.032255 0.877331
0.215191 -0.032785 0.891763
0.230146 -0.033576 0.913259
-0.364300 -0.024370 0.934808
-0.353611 -0.024322 0.932983
-0.354911 -0.025121 0.963605
-0.357167 -0.026036 0.998731
-0.344418 -0.025881 0.992774
-0.262420 -0.026175 1.004041
-0.237430 -0.024693 0.947186
0.119826 -0.023250 0.891837
0.129612 -0.023294 0.893545
-0.370964 -0.014635 0.951909
-0.358286 -0.014534 0.945320
-0.360930 -0.015066 0.979948
-0.350153 -0.015053 0.979120
-0.298085 -0.014556 0.946782
-0.293065 -0.014814 0.963573
-0.258978 -0.015234 0.990874
-0.247526 -0.015182 0.987463
0.120473 -0.013786 0.896657
0.130941 -0.013879 0.902707
-0.372114 -0.004468 0.954858
-0.365961 -0.004518 0.965568
-0.367946 -0.004674 0.998997
-0.350848 -0.004591 0.981063
-0.305545 -0.004541 0.970480
-0.290851 -0.004475 0.956293
-0.291222 -0.004644 0.992410
-0.257972 -0.004618 0.987024
-0.252953 -0.004722 1.009114
-0.362580 0.005597 0.930395
-0.356703 0.005662 0.941141
-0.362334 0.005918 0.983761
-0.356148 0.005991 0.995882
-0.342214 0.005934 0.986419
-0.318087 0.006078 1.010314
-0.318646 0.006303 1.047681
-0.284313 0.005829 0.968866
-0.272146 0.005790 0.962484
-0.266809 0.006141 1.020833
-0.254927 0.006118 1.016990
-0.359563 0.015419 0.922652
-0.353142 0.015571 0.931747
-0.352991 0.016016 0.958393
-0.341751 0.015970 0.955625
-0.314840 0.016711 1.000000
-0.300246 0.016497 0.987183
-0.264570 0.016916 1.012267
-0.253992 0.016933 1.013257
-0.247164 0.017212 1.029963
-0.372839 0.026220 0.956718
-0.356626 0.025788 0.940938
-0.342982 0.025521 0.931217
-0.342305 0.026233 0.957174
-0.286253 0.025794 0.941176
-0.287328 0.026835 0.979142
-0.254238 0.027797 1.014239
-0.241967 0.027634 1.008309
-0.388165 0.035976 0.944219
-0.403216 0.038369 1.007030
-0.395528 0.038671 1.014940
-0.344926 0.035682 0.936497
-0.344747 0.036730 0.964002
-0.252063 0.038314 1.005564
-0.236031 0.037476 0.983571
-0.373056 0.044281 0.907467
-0.369385 0.045017 0.922538
-0.365514 0.045768 0.937923
-0.360155 0.046369 0.950250
-0.344369 0.045624 0.934984
-0.331669 0.045256 0.927433
-0.285253 0.047434 0.972070
-0.258540 0.050329 1.031401
-0.247586 0.050345 1.031723
-0.381990 0.055280 0.929198
-0.368733 0.054787 0.920908
-0.352555 0.055339 0.930197
-0.338099 0.054611 0.917960
-0.327593 0.054497 0.916036
-0.316706 0.054310 0.912896
-0.273994 0.053594 0.900868
-0.282277 0.057227 0.961927
-0.248921 0.059077 0.993028
-0.249466 0.061845 1.039558
-0.384440 0.065636 0.935157
-0.373022 0.065388 0.931621
-0.361921 0.065183 0.928702
-0.347585 0.064368 0.917085
-0.337958 0.064402 0.917576
-0.325042 0.063793 0.908904
-0.283077 0.065325 0.930733
-0.248063 0.069458 0.989607
-0.238906 0.069875 0.995552
-0.411096 0.080882 1.000000
-0.379543 0.076669 0.947907
-0.393615 0.081694 1.010030
-0.345524 0.073736 0.911647
-0.341829 0.075066 0.928087
-0.331301 0.074930 0.926404
-0.316469 0.073782 0.912211
-0.287398 0.076429 0.944939
-0.270918 0.074672 0.923219
-0.257315 0.073606 0.910033
-0.246633 0.073323 0.906544
-0.241167 0.077817 0.962098
-0.242132 0.081610 1.008995
-0.411096 0.091578 1.000000
-0.382960 0.087589 0.956442
-0.379574 0.089197 0.974000
-0.369797 0.089351 0.975689
-0.338307 0.084116 0.918525
-0.325433 0.083335 0.909997
-0.314293 0.082964 0.905940
-0.272929 0.085174 0.930074
-0.256627 0.083116 0.907600
-0.258341 0.094381 1.030608
-0.242292 0.092463 1.009664
-0.229604 0.091708 1.001420
-0.394933 0.100876 0.986343
-0.365777 0.095993 0.938599
-0.360627 0.097312 0.951496
-0.338569 0.094013 0.919237
-0.333167 0.095280 0.931623
-0.325594 0.095984 0.938514
-0.263949 0.091991 0.899470
-0.257973 0.093309 0.912359
-0.231351 0.098598 0.964071
-0.228478 0.101916 0.996512
-0.376015 0.103328 0.914665
-0.369708 0.104308 0.923343
-0.364648 0.105704 0.935701
-0.355699 0.106020 0.938494
-0.334219 0.102510 0.907427
-0.325203 0.102728 0.909354
-0.321059 0.104545 0.925443
-0.272689 0.104976 0.929253
-0.256179 0.102350 0.906012
-0.224573 0.105718 0.935825
-0.231325 0.113976 1.008927
-0.377511 0.113560 0.918302
-0.371709 0.114802 0.928341
-0.371774 0.117973 0.953986
-0.357911 0.116779 0.944329
-0.342760 0.115083 0.930616
-0.329488 0.113935 0.921335
-0.323437 0.115291 0.932295
-0.274080 0.115501 0.933994
-0.255588 0.111782 0.903924
-0.231919 0.119512 0.966436
-0.228488 0.123237 0.996554
-0.387084 0.126510 0.941590
-0.374837 0.125780 0.936153
-0.355044 0.125862 0.936766
-0.342380 0.124897 0.929582
-0.330000 0.123981 0.922768
-0.282118 0.129170 0.961386
-0.261119 0.124078 0.923484
-0.246125 0.121551 0.904676
-0.221329 0.123920 0.922307
-0.224338 0.131464 0.978455
-0.388211 0.136978 0.944331
-0.391286 0.141752 0.977236
-0.363942 0.135464 0.933888
-0.356920 0.136599 0.941716
-0.343276 0.135192 0.932016
-0.339763 0.137810 0.950066
-0.271070 0.133991 0.923737
-0.256872 0.131776 0.908464
-0.250002 0.133293 0.918926
-0.221114 0.133654 0.921410
-0.230606 0.145894 1.005794
-0.405829 0.153753 0.987187
-0.389831 0.151637 0.973601
-0.365650 0.146134 0.938271
-0.355868 0.146239 0.938940
-0.348012 0.147163 0.944875
-0.342224 0.149043 0.956946
-0.309064 0.138751 0.890866
-0.257923 0.142071 0.912181
-0.248980 0.142536 0.915169
-0.228168 0.148087 0.950806
-0.230235 0.156399 1.004174
-0.218569 0.155739 0.999935
-0.382757 0.154970 0.931063
-0.383253 0.159316 0.957173
-0.364049 0.155486 0.934164
-0.341239 0.154208 0.926484
-0.324642 0.151095 0.907785
-0.311415 0.149407 0.897644
-0.236540 0.164063 0.985695
-0.219388 0.159265 0.956866
-0.222091 0.169115 1.016050
-0.382436 0.164790 0.930284
-0.372089 0.164614 0.929290
-0.377788 0.171722 0.969420
-0.357293 0.166989 0.942698
-0.347369 0.167065 0.943128
-0.325179 0.161070 0.909286
-0.330058 0.168527 0.951380
-0.216922 0.167593 0.946110
-0.226787 0.183787 1.037532
-0.385346 0.176069 0.937361
-0.416944 0.200963 1.069893
-0.353177 0.175031 0.931839
-0.338144 0.172447 0.918083
-0.326717 0.171603 0.913587
-0.314852 0.170469 0.907549
-0.306605 0.171284 0.911890
-0.214727 0.175914 0.936537
-0.213455 0.183427 0.976539
-0.384126 0.185505 0.934395
-0.368824 0.182872 0.921135
-0.368337 0.187643 0.945167
-0.351171 0.183947 0.926546
-0.346513 0.186777 0.940804
-0.333392 0.185079 0.932251
-0.311495 0.183925 0.926435
-0.298572 0.182086 0.917174
-0.210211 0.182019 0.916838
-0.216008 0.196190 0.988218
-0.382394 0.194617 0.930182
-0.383256 0.200265 0.957179
-0.364092 0.206826 0.988534
-0.336741 0.197009 0.941616
-0.324495 0.195697 0.935346
-0.312266 0.194312 0.928727
-0.300093 0.192873 0.921847
-0.214867 0.196074 0.937145
-0.205382 0.196589 0.939607
-0.390666 0.208990 0.950302
-0.370293 0.203383 0.924804
-0.366624 0.206894 0.940770
-0.351995 0.210175 0.955689
-0.330443 0.203207 0.924005
-0.317697 0.201392 0.915751
-0.262869 0.212491 0.966221
-0.239263 0.201324 0.915443
-0.229668 0.201496 0.916223
-0.209472 0.200922 0.913614
-0.205733 0.206992 0.941214
-0.195102 0.206394 0.938498
-0.407207 0.228433 0.990539
-0.405234 0.233399 1.012070
-0.371036 0.219567 0.952093
-0.358012 0.224164 0.972026
-0.336832 0.217209 0.941870
-0.323832 0.215264 0.933434
-0.260053 0.220438 0.955870
-0.241690 0.213256 0.924726
-0.223878 0.225183 0.976447
-0.206761 0.218143 0.945918
-0.193017 0.214118 0.928466
-0.392833 0.230589 0.955573
-0.379511 0.228720 0.947827
-0.359221 0.222434 0.921775
-0.362029 0.237191 0.982931
-0.332504 0.224362 0.929767
-0.322401 0.224252 0.929311
-0.334004 0.239713 0.993380
-0.321029 0.237970 0.986158
-0.254097 0.216853 0.898649
-0.211942 0.223064 0.924388
-0.202254 0.223284 0.925298
-0.189174 0.219588 0.909983
-0.379901 0.232883 0.924117
-0.362820 0.228353 0.906142
-0.369060 0.238654 0.947021
-0.349030 0.238810 0.947639
-0.335189 0.236199 0.937277
-0.330684 0.247848 0.983504
-0.323750 0.250624 0.994518
-0.252410 0.224961 0.892683
-0.250689 0.232210 0.921450
-0.238209 0.229679 0.911407
-0.199653 0.230181 0.913396
-0.192482 0.233330 0.925894
-0.375314 0.239835 0.912958
-0.357785 0.234741 0.893567
-0.372204 0.250902 0.955089
-0.356600 0.247167 0.940870
-0.349532 0.249303 0.949001
-0.329358 0.241939 0.920971
-0.313454 0.244905 0.932260
-0.241872 0.233552 0.889042
-0.231042 0.232223 0.883985
-0.224504 0.245767 0.935539
-0.201295 0.241924 0.920910
-0.188557 0.238273 0.907014
-0.352271 0.240532 0.879794
-0.357898 0.251081 0.918380
-0.372710 0.268851 0.983375
-0.346174 0.256960 0.939884
-0.332922 0.254514 0.930937
-0.322911 0.254471 0.930779
-0.263279 0.264573 0.967729
-0.223914 0.255099 0.933077
-0.194093 0.242765 0.887960
-0.192596 0.253285 0.926442
-0.391593 0.270613 0.952557
-0.337683 0.246166 0.866506
-0.354701 0.265869 0.935860
-0.342762 0.264381 0.930621
-0.328882 0.261261 0.919639
-0.320130 0.262149 0.922763
-0.321272 0.271452 0.955512
-0.261658 0.273230 0.961769
-0.201767 0.262236 0.923070
-0.195309 0.266901 0.939492
-0.168055 0.242113 0.852238
-0.369250 0.264779 0.898209
-0.354100 0.260698 0.884364
-0.333642 0.259500 0.880298
-0.342244 0.273920 0.929214
-0.325381 0.268212 0.909852
-0.318773 0.270865 0.918853
-0.310221 0.271983 0.922645
-0.240633 0.271405 0.920684
-0.233371 0.274445 0.930996
-0.229101 0.281431 0.954695
-0.211923 0.285805 0.969533
-0.194389 0.275644 0.935066
-0.183651 0.274542 0.931328
-0.408512 0.303561 0.993714
-0.348802 0.266114 0.871131
-0.359194 0.281564 0.921705
-0.338728 0.273014 0.893716
-0.338242 0.280539 0.918349
-0.350300 0.299228 0.979529
-0.336699 0.296476 0.970522
-0.315067 0.286254 0.937059
-0.295975 0.277743 0.909198
-0.248858 0.303275 0.992778
-0.233774 0.297590 0.974169
-0.211843 0.296062 0.969167
-0.197967 0.290903 0.952277
-0.191274 0.296313 0.969987
0.404435 0.299557 0.980607
