3
-0.411096 -0.304144 1.000000
-0.398475 -0.302681 0.995189
-0.215758 -0.300214 0.987076
-0.161225 -0.317565 1.044126
-0.149952 -0.317341 1.043388
-0.139313 -0.318529 1.047295
-0.127388 -0.316729 1.041377
-0.116227 -0.316667 1.041172
-0.103826 -0.312854 1.028638
0.164193 -0.320634 1.054215
0.163710 -0.299149 0.983577
0.183029 -0.314257 1.033249
0.193015 -0.312534 1.027584
0.206188 -0.315877 1.038574
0.239038 -0.315253 1.036523
0.250112 -0.315238 1.036474
0.284091 -0.304144 1.000000
-0.411096 -0.293449 1.000000
-0.381621 -0.279685 0.953096
-0.222820 -0.299138 1.019387
-0.160932 -0.305841 1.042227
-0.149917 -0.306110 1.043145
-0.139350 -0.307410 1.047575
0.168534 -0.317539 1.082092
0.174842 -0.308256 1.050457
0.187109 -0.309966 1.056284
0.205584 -0.303877 1.035535
0.242696 -0.308821 1.052384
0.249218 -0.303065 1.032770
0.262135 -0.305245 1.040196
0.286003 -0.306982 1.046115
0.295894 -0.305641 1.041548
0.311065 -0.309654 1.055222
0.322695 -0.309985 1.056350
0.328355 -0.304752 1.038518
0.342992 -0.307921 1.049317
0.354242 -0.307945 1.049398
0.367044 -0.309275 1.053929
0.378433 -0.309371 1.054258
0.390686 -0.310147 1.056902
0.399135 -0.307944 1.049395
0.414557 -0.311095 1.060131
0.426554 -0.311576 1.061772
0.437861 -0.311541 1.061653
-0.382514 -0.270123 0.955327
-0.231897 -0.299977 1.060910
0.051423 -0.297973 1.053824
0.062317 -0.296182 1.047491
0.073760 -0.297149 1.050910
0.084825 -0.296537 1.048746
0.166353 -0.302006 1.068088
0.184978 -0.295266 1.044251
0.193942 -0.291949 1.032519
0.213410 -0.288410 1.020004
0.228577 -0.293884 1.039364
0.240266 -0.294587 1.041849
0.249366 -0.292193 1.033383
0.261454 -0.293356 1.037494
0.286163 -0.295958 1.046699
0.297704 -0.296303 1.047917
0.306714 -0.294195 1.040463
0.335457 -0.310500 1.098126
0.331881 -0.296799 1.049671
0.352661 -0.295397 1.044713
0.366777 -0.297786 1.053164
0.371145 -0.292354 1.033952
0.388325 -0.297037 1.050514
0.400536 -0.297762 1.053078
0.413712 -0.299146 1.057971
0.423004 -0.297722 1.052936
0.434284 -0.297735 1.052981
-0.382342 -0.259788 0.954897
-0.207180 -0.271132 0.996594
-0.038514 -0.285002 1.047576
-0.027325 -0.285164 1.048170
-0.016107 -0.285031 1.047681
-0.004888 -0.284177 1.044543
0.006268 -0.283440 1.041833
0.017491 -0.284750 1.046649
0.028653 -0.284435 1.045490
0.040152 -0.286698 1.053810
0.050939 -0.284002 1.043899
0.062138 -0.284161 1.044483
0.073322 -0.284212 1.044670
0.084249 -0.283384 1.041629
0.091633 -0.272223 1.000605
0.149130 -0.279705 1.028104
0.165274 -0.288697 1.061157
0.173223 -0.283140 1.040731
0.184594 -0.283509 1.042087
0.196211 -0.284192 1.044596
0.207765 -0.284716 1.046522
0.249949 -0.281798 1.035799
0.266461 -0.287665 1.057362
0.279241 -0.289189 1.062964
0.291265 -0.289841 1.065360
0.310437 -0.286503 1.053091
0.336238 -0.289321 1.063452
0.345316 -0.287410 1.056428
0.353196 -0.284655 1.046299
0.379567 -0.287679 1.057416
0.388520 -0.285945 1.051043
0.401635 -0.287286 1.055969
0.410397 -0.285524 1.049495
0.419188 -0.283876 1.043436
-0.383952 -0.250626 0.958917
-0.405441 -0.271917 1.040376
-0.395686 -0.272863 1.043996
-0.391426 -0.277763 1.062747
-0.381879 -0.279093 1.067835
-0.393537 -0.296480 1.134358
-0.363163 -0.282300 1.080103
-0.205962 -0.258943 0.990738
-0.194937 -0.273192 1.045255
-0.180919 -0.268971 1.029107
-0.171398 -0.271323 1.038105
-0.154862 -0.262126 1.002916
-0.150219 -0.273190 1.045247
-0.094248 -0.272970 1.044408
-0.082967 -0.272607 1.043017
-0.072039 -0.273470 1.046320
-0.061050 -0.274373 1.049773
-0.049767 -0.274068 1.048610
-0.038704 -0.275147 1.052737
-0.027338 -0.274077 1.048643
-0.016179 -0.275050 1.052364
-0.004899 -0.273649 1.047006
0.006256 -0.271788 1.039883
0.017483 -0.273438 1.046197
0.028532 -0.272101 1.041081
0.039924 -0.273868 1.047841
0.051237 -0.274434 1.050009
0.061718 -0.271142 1.037413
0.072367 -0.269480 1.031052
0.083978 -0.271366 1.038271
0.095533 -0.272653 1.043193
0.106673 -0.272609 1.043027
0.136153 -0.287762 1.101001
0.150007 -0.270290 1.034152
0.162063 -0.271961 1.040545
0.174189 -0.273525 1.046531
0.184790 -0.272652 1.043191
0.196212 -0.273021 1.044602
0.207331 -0.272951 1.044335
0.218469 -0.272912 1.044186
0.230302 -0.273703 1.047210
0.245949 -0.278742 1.066492
0.252757 -0.273762 1.047435
0.264840 -0.274675 1.050930
0.290829 -0.289349 1.107074
0.295204 -0.282212 1.079769
0.298996 -0.275076 1.052466
0.318970 -0.282806 1.082039
0.334878 -0.286515 1.096231
0.339175 -0.280375 1.072740
0.344192 -0.275213 1.052988
0.356468 -0.275998 1.055993
0.365271 -0.274128 1.048839
0.384698 -0.280106 1.071709
0.389593 -0.275462 1.053943
0.402709 -0.276730 1.058791
0.408824 -0.273248 1.045471
0.422364 -0.274782 1.051342
0.435907 -0.276240 1.056916
-0.389515 -0.265097 1.057558
-0.379418 -0.265947 1.060952
-0.374501 -0.270593 1.079487
-0.364142 -0.271478 1.083015
-0.206369 -0.248838 0.992697
-0.209063 -0.265758 1.060195
-0.195136 -0.262280 1.046322
-0.182309 -0.259946 1.037011
-0.172304 -0.261596 1.043592
-0.160272 -0.260182 1.037952
-0.150740 -0.262919 1.048871
-0.140551 -0.264857 1.056602
-0.027493 -0.264357 1.054607
-0.016214 -0.264354 1.054598
-0.004920 -0.263546 1.051374
0.006301 -0.262549 1.047395
0.017493 -0.262391 1.046766
0.028556 -0.261182 1.041943
0.039725 -0.261346 1.042596
0.051141 -0.262713 1.048050
0.062369 -0.262790 1.048357
0.074080 -0.264573 1.055470
0.085441 -0.264797 1.056362
0.096071 -0.262969 1.049071
0.107251 -0.262871 1.048679
0.118229 -0.262343 1.046572
0.142148 -0.265202 1.057979
0.151049 -0.261030 1.041335
0.161764 -0.260350 1.038622
0.173423 -0.261180 1.041934
0.186226 -0.263528 1.051300
0.197645 -0.263762 1.052234
0.209071 -0.263978 1.053098
0.220404 -0.264062 1.053432
0.229275 -0.261332 1.042540
0.243695 -0.264886 1.056720
0.263881 -0.274115 1.093535
0.264303 -0.262901 1.048799
0.278149 -0.265409 1.058805
0.291581 -0.267342 1.066518
0.302098 -0.266557 1.063384
0.319091 -0.271336 1.082451
0.328731 -0.269746 1.076108
0.337969 -0.267946 1.068924
0.341496 -0.261883 1.044740
0.354851 -0.263503 1.051203
0.369086 -0.265657 1.059794
0.383724 -0.267963 1.068995
0.388982 -0.263776 1.052290
0.400167 -0.263731 1.052109
0.412708 -0.264556 1.055404
0.418390 -0.261059 1.041451
0.433655 -0.263566 1.051454
-0.366203 -0.261366 1.089145
-0.201836 -0.232988 0.970890
-0.195127 -0.237460 0.989527
-0.192881 -0.248187 1.034228
-0.183460 -0.250426 1.043557
-0.171992 -0.249980 1.041699
-0.161475 -0.250951 1.045744
-0.148269 -0.247575 1.031678
-0.139302 -0.251304 1.047218
-0.128055 -0.251212 1.046832
-0.117684 -0.252986 1.054227
0.028303 -0.247823 1.032712
0.039991 -0.251873 1.049587
0.051074 -0.251171 1.046661
0.062396 -0.251685 1.048806
0.095724 -0.250839 1.045278
0.107344 -0.251872 1.049585
0.118917 -0.252611 1.052665
0.129948 -0.252169 1.050821
0.141634 -0.252968 1.054150
0.152618 -0.252487 1.052147
0.162194 -0.249904 1.041384
0.175058 -0.252392 1.051751
0.185738 -0.251623 1.048545
0.198324 -0.253375 1.055845
0.209029 -0.252665 1.052889
0.220433 -0.252829 1.053570
0.230100 -0.251081 1.046289
0.243293 -0.253166 1.054975
0.258550 -0.257118 1.071444
0.263728 -0.251137 1.046519
0.276125 -0.252236 1.051101
0.285838 -0.250894 1.045509
0.301556 -0.254726 1.061479
0.312698 -0.254555 1.060763
0.317973 -0.249786 1.040891
0.327531 -0.248591 1.035912
0.342889 -0.251733 1.049002
0.354996 -0.252363 1.051631
0.370098 -0.255019 1.062699
0.382510 -0.255719 1.065613
0.382117 -0.248065 1.033720
0.388772 -0.245288 1.022148
0.413669 -0.253859 1.057862
0.424700 -0.253689 1.057157
0.433740 -0.252371 1.051662
-0.203696 -0.236840 1.032980
-0.193581 -0.237987 1.037984
-0.183911 -0.239854 1.046127
-0.172186 -0.239108 1.042873
-0.161039 -0.239118 1.042916
-0.151394 -0.241526 1.053419
-0.139566 -0.240559 1.049203
-0.128201 -0.240290 1.048027
-0.116781 -0.239855 1.046130
-0.106260 -0.241372 1.052749
-0.094694 -0.240593 1.049351
-0.080174 -0.231090 1.007904
-0.049763 -0.240403 1.048521
-0.038641 -0.240979 1.051036
0.028901 -0.241785 1.054548
0.040033 -0.240902 1.050698
0.153566 -0.242733 1.058684
0.162472 -0.239176 1.043169
0.185987 -0.240730 1.049946
0.198511 -0.242310 1.056841
0.209961 -0.242481 1.057583
0.220326 -0.241444 1.053061
0.231859 -0.241725 1.054289
0.243492 -0.242081 1.055839
0.249043 -0.236625 1.032045
0.264051 -0.240238 1.047801
0.279449 -0.243896 1.063756
0.287356 -0.240985 1.051061
0.299729 -0.241899 1.055046
0.310117 -0.241202 1.052007
0.321691 -0.241444 1.053064
0.336349 -0.243907 1.063802
0.344466 -0.241620 1.053827
0.353567 -0.240146 1.047399
0.367785 -0.242131 1.056058
0.368732 -0.235522 1.027232
0.421441 -0.240523 1.049045
0.431534 -0.239897 1.046314
-0.217000 -0.228164 1.043834
-0.206459 -0.228854 1.046991
-0.190808 -0.223636 1.023116
-0.182538 -0.226958 1.038315
-0.160340 -0.226975 1.038391
-0.150881 -0.229480 1.049854
-0.137400 -0.225779 1.032920
-0.127474 -0.227781 1.042082
-0.117125 -0.229341 1.049218
-0.105579 -0.228638 1.046003
-0.094728 -0.229453 1.049730
-0.081606 -0.224246 1.025906
-0.072053 -0.228751 1.046516
-0.060907 -0.228928 1.047328
-0.049746 -0.229113 1.048175
-0.038734 -0.230293 1.053572
-0.027505 -0.230618 1.055058
-0.016241 -0.230911 1.056402
-0.004951 -0.231291 1.058139
0.006400 -0.232525 1.063785
0.028791 -0.229624 1.050510
0.040083 -0.229952 1.052011
0.051238 -0.229517 1.050021
0.062918 -0.231169 1.057581
0.288614 -0.230750 1.055664
0.301339 -0.231854 1.060715
0.309346 -0.229379 1.049390
0.318687 -0.228032 1.043230
0.332110 -0.229598 1.050395
-0.209296 -0.209296 1.006776
-0.203177 -0.214197 1.030350
-0.195531 -0.217958 1.048440
-0.184995 -0.218758 1.052291
-0.171705 -0.216195 1.039962
-0.160800 -0.216488 1.041369
-0.150012 -0.216994 1.043805
-0.139385 -0.217833 1.047841
-0.128113 -0.217722 1.047306
-0.117103 -0.218078 1.049017
-0.105940 -0.218194 1.049577
-0.094259 -0.217145 1.044530
-0.083163 -0.217342 1.045477
-0.071934 -0.217200 1.044795
-0.061042 -0.218209 1.049647
-0.050001 -0.219020 1.053549
-0.038671 -0.218667 1.051849
-0.027412 -0.218595 1.051506
-0.016092 -0.217591 1.046675
-0.004919 -0.218525 1.051170
0.006264 -0.216441 1.041144
0.017483 -0.217490 1.046189
0.028843 -0.218788 1.052435
0.039921 -0.217816 1.047759
0.051285 -0.218487 1.050986
0.310570 -0.219019 1.053544
0.310218 -0.211111 1.015506
0.359209 -0.221216 1.064113
0.366598 -0.218833 1.052650
0.380548 -0.220392 1.060148
0.392989 -0.221012 1.063132
-0.211788 -0.200892 1.018761
-0.169508 -0.202449 1.026657
-0.162022 -0.206911 1.049283
-0.151326 -0.207633 1.052946
-0.140218 -0.207861 1.054101
-0.128965 -0.207895 1.054273
-0.117523 -0.207600 1.052780
-0.106038 -0.207161 1.050552
-0.095053 -0.207708 1.053324
-0.083589 -0.207217 1.050835
-0.071979 -0.206154 1.045445
-0.060952 -0.206675 1.048088
-0.050071 -0.208040 1.055010
-0.038547 -0.206754 1.048486
0.017171 -0.202622 1.027533
0.028282 -0.203492 1.031944
0.039343 -0.203615 1.032571
0.051225 -0.207003 1.049752
0.062375 -0.206748 1.048458
0.074457 -0.209190 1.060842
0.085752 -0.209064 1.060203
0.277361 -0.208197 1.055807
0.281461 -0.203009 1.029499
0.292998 -0.203375 1.031354
0.304679 -0.203810 1.033560
0.320584 -0.206941 1.049438
0.333384 -0.207924 1.054422
0.345163 -0.208227 1.055959
0.355301 -0.207552 1.052534
0.363112 -0.205601 1.042640
-0.116880 -0.195267 1.047021
-0.105629 -0.195169 1.046496
-0.093983 -0.194232 1.041474
-0.081696 -0.191539 1.027036
-0.070582 -0.191189 1.025156
-0.061008 -0.195646 1.049057
-0.050075 -0.196775 1.055110
-0.038870 -0.197179 1.057275
0.050511 -0.193047 1.035121
0.062161 -0.194865 1.044867
0.073367 -0.194945 1.045299
0.084544 -0.194941 1.045277
0.096129 -0.195767 1.049705
0.107125 -0.195346 1.047447
0.117870 -0.194589 1.043390
0.126104 -0.190178 1.019735
0.220541 -0.196584 1.054086
0.231995 -0.196737 1.054906
0.242531 -0.196134 1.051670
0.249092 -0.192512 1.032250
0.266726 -0.197391 1.058414
0.277917 -0.197300 1.057923
0.283323 -0.193269 1.036311
0.287310 -0.188611 1.011331
0.303597 -0.192071 1.029888
0.347266 -0.198133 1.062392
0.353103 -0.195081 1.046025
0.363595 -0.194708 1.044027
-0.120625 -0.173357 0.986091
-0.116062 -0.182780 1.039694
-0.103887 -0.180942 1.029239
-0.093217 -0.181601 1.032983
-0.082609 -0.182572 1.038509
-0.071679 -0.183026 1.041089
-0.061385 -0.185567 1.055547
-0.050000 -0.185213 1.053529
-0.038748 -0.185284 1.053937
-0.027304 -0.184126 1.047350
-0.016132 -0.184468 1.049292
-0.004915 -0.184677 1.050480
0.094917 -0.182213 1.036466
0.105403 -0.181183 1.030609
0.116032 -0.180571 1.027126
0.126494 -0.179827 1.022893
0.137942 -0.180491 1.026673
0.152994 -0.185425 1.054740
0.165025 -0.186273 1.059562
0.176482 -0.186404 1.060307
0.187709 -0.186292 1.059670
0.198132 -0.185441 1.054826
0.207418 -0.183673 1.044770
0.219541 -0.184470 1.049307
0.232954 -0.186222 1.059269
0.235912 -0.171870 0.977631
0.251553 -0.175487 0.998205
0.278423 -0.186323 1.059848
0.286829 -0.184440 1.049135
0.292594 -0.181064 1.029929
0.310121 -0.184947 1.052019
0.321336 -0.184927 1.051901
0.325913 -0.181216 1.030795
-0.282254 -0.164815 0.998233
-0.262762 -0.159465 0.965827
-0.122796 -0.165741 1.003840
-0.115999 -0.171567 1.039124
-0.104046 -0.170194 1.030813
-0.092492 -0.169226 1.024947
-0.082169 -0.170552 1.032980
-0.070995 -0.170251 1.031154
-0.060576 -0.171980 1.041626
-0.050129 -0.174391 1.056231
-0.015913 -0.170887 1.035011
-0.004876 -0.172058 1.042101
0.006326 -0.173622 1.051575
0.017780 -0.175666 1.063954
0.026915 -0.162144 0.982056
0.039807 -0.172496 1.044756
0.099433 -0.160522 0.972232
0.113938 -0.166525 1.008590
0.122875 -0.164055 0.993626
0.133502 -0.164055 0.993628
0.151825 -0.172814 1.046680
0.163904 -0.173752 1.052363
0.175425 -0.174016 1.053959
0.186825 -0.174135 1.054683
0.198568 -0.174542 1.057144
0.286453 -0.172992 1.047760
0.284779 -0.165507 1.002420
0.302514 -0.169436 1.026217
0.315608 -0.170580 1.033149
0.323684 -0.169028 1.023746
-0.314953 -0.149392 0.967494
-0.275238 -0.150307 0.973418
-0.257775 -0.146305 0.947498
-0.125342 -0.158218 1.024651
-0.114184 -0.157943 1.022871
-0.101960 -0.155979 1.010148
-0.090607 -0.155038 1.004057
-0.081197 -0.157618 1.020766
-0.071850 -0.161140 1.043575
-0.058444 -0.155178 1.004965
-0.048897 -0.159088 1.030284
-0.037897 -0.159168 1.030804
-0.027160 -0.160869 1.041817
0.006148 -0.157789 1.021869
0.017286 -0.159724 1.034400
0.028646 -0.161396 1.045231
0.040280 -0.163241 1.057181
0.051019 -0.161444 1.045541
0.061391 -0.159340 1.031915
0.080084 -0.152887 0.990127
0.091310 -0.153961 0.997080
0.285191 -0.155010 1.003873
0.287426 -0.150556 0.975031
0.308804 -0.156091 1.010877
0.323375 -0.157927 1.022768
0.308912 -0.145928 0.945055
-0.314850 -0.138999 0.967177
-0.276148 -0.140359 0.976637
-0.263374 -0.139129 0.968078
-0.035310 -0.138030 0.960435
-0.025553 -0.140871 0.980197
-0.015844 -0.148107 1.030551
-0.004920 -0.151113 1.051467
0.027564 -0.144542 1.005745
0.038394 -0.144818 1.007664
0.050064 -0.147448 1.025962
0.062965 -0.152106 1.058373
0.071546 -0.146499 1.019360
0.083610 -0.148564 1.033730
0.093108 -0.146119 1.016717
0.107824 -0.137173 0.954468
0.120125 -0.139605 0.971388
0.289317 -0.146360 1.018394
0.298420 -0.145488 1.012327
0.307166 -0.144509 1.005515
0.330508 -0.150231 1.045329
-0.261518 -0.127868 0.961256
-0.027065 -0.138102 1.038193
-0.015422 -0.133430 1.003073
-0.004779 -0.135873 1.021439
0.005890 -0.130229 0.979009
0.017273 -0.137494 1.033623
0.048169 -0.131309 0.987129
0.060172 -0.134542 1.011430
0.073208 -0.138746 1.043037
0.079843 -0.131311 0.987145
0.090818 -0.131918 0.991705
0.106200 -0.138129 1.038399
0.112683 -0.132685 0.997475
0.120472 -0.129589 0.974194
0.145584 -0.133508 1.003658
0.156455 -0.133625 1.004535
0.282210 -0.132141 0.993380
0.290668 -0.131163 0.986032
0.303617 -0.132210 0.993897
0.321727 -0.135357 1.017557
-0.328110 -0.123294 1.007910
-0.258244 -0.116115 0.949221
-0.253744 -0.118760 0.970845
-0.004844 -0.126638 1.035246
0.006044 -0.122890 1.004607
0.016776 -0.122802 1.003889
0.026204 -0.116958 0.956120
0.036584 -0.117455 0.960175
0.073368 -0.127870 1.045320
0.083390 -0.126118 1.031000
0.097635 -0.130418 1.066146
0.107758 -0.116685 0.953883
0.119273 -0.117983 0.964497
0.135078 -0.122981 1.005354
0.145866 -0.123011 1.005601
0.156583 -0.122982 1.005359
0.166283 -0.122208 0.999031
0.280613 -0.120829 0.987758
0.293922 -0.121968 0.997069
0.292671 -0.117196 0.958064
0.299992 -0.116064 0.948811
-0.323335 -0.110877 0.993243
-0.326097 -0.115622 1.035755
-0.262127 -0.107556 0.963493
-0.252247 -0.107737 0.965120
0.006322 -0.117305 1.050829
0.017071 -0.114034 1.021523
0.026548 -0.108136 0.968688
0.035854 -0.105045 0.941004
0.047168 -0.107905 0.966621
0.061488 -0.115376 1.033550
0.068399 -0.108787 0.974519
0.076860 -0.106079 0.950265
0.090925 -0.110836 0.992878
0.107808 -0.117673 1.054122
0.120479 -0.119053 1.066489
0.148016 -0.113911 1.020422
0.155391 -0.111375 0.997703
0.166543 -0.111697 1.000593
0.181012 -0.114072 1.021864
0.186772 -0.110999 0.994342
0.196657 -0.110578 0.990569
0.268257 -0.105409 0.944265
0.281371 -0.106551 0.954492
0.291107 -0.106378 0.952944
0.309795 -0.109378 0.979818
-0.267106 -0.099098 0.981793
-0.249386 -0.096310 0.954171
0.046032 -0.095217 0.943340
0.056812 -0.096390 0.954959
0.068212 -0.098095 0.971855
0.076070 -0.094930 0.940497
0.087141 -0.096046 0.951554
0.101577 -0.100249 0.993199
0.111949 -0.100025 0.990978
0.126466 -0.103224 1.022667
0.135087 -0.101483 1.005420
0.169252 -0.102639 1.016873
0.180865 -0.103059 1.021033
0.188716 -0.101410 1.004696
0.197463 -0.100393 0.994626
0.282827 -0.096841 0.959432
0.296927 -0.098109 0.971999
0.306507 -0.097849 0.969416
-0.266041 -0.088245 0.977880
-0.250084 -0.086346 0.956841
0.046333 -0.085684 0.949509
0.065326 -0.083991 0.930739
0.077527 -0.086497 0.958520
0.087900 -0.086616 0.959839
0.095525 -0.084287 0.934024
0.106187 -0.084824 0.939977
0.116605 -0.085090 0.942928
0.131484 -0.088310 0.978608
0.141122 -0.087795 0.972897
0.154361 -0.089437 0.991089
0.287069 -0.087878 0.973822
0.295679 -0.087345 0.967913
-0.309301 -0.078146 0.982409
-0.263766 -0.077121 0.969519
-0.253134 -0.077041 0.968514
0.075398 -0.074152 0.932193
0.086006 -0.074706 0.939166
0.099179 -0.077139 0.969749
0.111552 -0.078549 0.987470
0.115859 -0.074526 0.936895
0.131307 -0.077739 0.977290
0.139785 -0.076657 0.963682
0.148956 -0.076076 0.956387
0.273054 -0.076455 0.961148
0.287475 -0.077573 0.975198
-0.310343 -0.067867 0.985717
-0.263235 -0.066617 0.967565
-0.254794 -0.067120 0.974862
0.086061 -0.064703 0.939759
0.097163 -0.065411 0.950041
0.109851 -0.066950 0.972407
0.116471 -0.064846 0.941844
0.128666 -0.065933 0.957632
0.142594 -0.067683 0.983041
0.245960 -0.064463 0.936276
0.255933 -0.064453 0.936128
0.267915 -0.064930 0.943061
0.278583 -0.065066 0.945035
0.288845 -0.065101 0.945542
0.301927 -0.065747 0.954932
0.311121 -0.065533 0.951814
0.317849 -0.064829 0.941588
0.329921 -0.065224 0.947337
0.338495 -0.064926 0.942996
-0.328273 -0.060637 1.042669
-0.264333 -0.056504 0.971603
-0.253231 -0.056345 0.968882
0.078838 -0.056685 0.974725
0.099769 -0.056731 0.975519
0.105827 -0.054479 0.936785
0.115708 -0.054414 0.935673
0.126918 -0.054935 0.944623
0.138442 -0.055505 0.954424
0.148853 -0.055580 0.955726
0.228804 -0.055141 0.948173
0.237160 -0.054729 0.941092
0.246623 -0.054596 0.938800
0.256000 -0.054455 0.936370
0.265686 -0.054387 0.935213
0.276838 -0.054614 0.939114
-0.396705 -0.049676 1.046686
-0.386486 -0.049801 1.049334
-0.315260 -0.049194 1.036546
-0.257241 -0.046711 0.984225
-0.249036 -0.047151 0.993486
0.079073 -0.046398 0.977628
0.105911 -0.044495 0.937531
0.116878 -0.044856 0.945132
0.126700 -0.044755 0.943001
0.135556 -0.044353 0.934527
0.230038 -0.045243 0.953287
0.242772 -0.045721 0.963361
0.247464 -0.044707 0.941999
0.257381 -0.044680 0.941421
-0.396869 -0.038497 1.047119
-0.385926 -0.038523 1.047815
-0.376123 -0.038667 1.051738
-0.259174 -0.036457 0.991621
-0.249258 -0.036558 0.994375
0.126098 -0.034504 0.938519
0.135777 -0.034414 0.936049
0.227411 -0.034647 0.942403
0.242944 -0.035443 0.964044
-0.381938 -0.025550 0.980068
-0.366299 -0.025195 0.966460
-0.374830 -0.026531 1.017688
-0.370455 -0.027005 1.035890
-0.357642 -0.026875 1.030891
-0.263560 -0.026289 1.008405
-0.244105 -0.025387 0.973815
0.126546 -0.024554 0.941857
0.136914 -0.024607 0.943887
-0.386419 -0.015245 0.991566
-0.372426 -0.015107 0.982627
-0.382595 -0.015970 1.038769
-0.378730 -0.016282 1.059028
-0.303678 -0.014829 0.964547
-0.304785 -0.015407 1.002105
-0.259816 -0.015283 0.994079
-0.251434 -0.015421 1.003054
0.127036 -0.014537 0.945505
0.137630 -0.014587 0.948820
-0.387251 -0.004650 0.993702
-0.383320 -0.004732 1.011369
-0.385997 -0.004904 1.048005
-0.374446 -0.004899 1.047050
-0.308317 -0.004582 0.979283
-0.300638 -0.004625 0.988472
-0.304316 -0.004852 1.037033
-0.258120 -0.004621 0.987588
-0.251877 -0.004702 1.004823
-0.373801 0.005771 0.959188
-0.374702 0.005948 0.988632
-0.380604 0.006217 1.033365
-0.374404 0.006298 1.046932
-0.362059 0.006278 1.043622
-0.315907 0.006036 1.003389
-0.314351 0.006218 1.033558
-0.300722 0.006165 1.024784
-0.284631 0.006056 1.006639
-0.261553 0.006020 1.000725
-0.253217 0.006077 1.010166
-0.368619 0.015807 0.945889
-0.358270 0.015797 0.945277
-0.368466 0.016718 1.000408
-0.354605 0.016570 0.991569
-0.323286 0.017160 1.026827
-0.309133 0.016985 1.016401
-0.265371 0.016967 1.015332
-0.252524 0.016835 1.007404
-0.247330 0.017224 1.030657
-0.381487 0.026828 0.978910
-0.365492 0.026429 0.964330
-0.354963 0.026413 0.963747
-0.356437 0.027316 0.996691
-0.294905 0.026574 0.969622
-0.304516 0.028440 1.037713
-0.251358 0.027482 1.002749
-0.243243 0.027780 1.013625
-0.397065 0.036801 0.965868
-0.418746 0.039847 1.045817
-0.402514 0.039354 1.032867
-0.355650 0.036791 0.965614
-0.349405 0.037226 0.977029
-0.249297 0.037893 0.994527
-0.244272 0.038784 1.017913
-0.385123 0.045714 0.936819
-0.380023 0.046313 0.949105
-0.375351 0.046999 0.963165
-0.374133 0.048169 0.987129
-0.352263 0.046670 0.956417
-0.339076 0.046267 0.948146
-0.292556 0.048648 0.996956
-0.255333 0.049705 1.018608
-0.245106 0.049840 1.021388
-0.391928 0.056718 0.953373
-0.380444 0.056527 0.950157
-0.361381 0.056725 0.953485
-0.346831 0.056022 0.941669
-0.336433 0.055967 0.940755
-0.325504 0.055819 0.938255
-0.284886 0.055725 0.936679
-0.287896 0.058366 0.981075
-0.247400 0.058716 0.986961
-0.244328 0.060572 1.018146
-0.395423 0.067511 0.961875
-0.385327 0.067545 0.962352
-0.370607 0.066747 0.950992
-0.357323 0.066171 0.942778
-0.347033 0.066132 0.942218
-0.334382 0.065626 0.935020
-0.292848 0.067580 0.962858
-0.247150 0.069202 0.985962
-0.241032 0.070497 1.004413
-0.411096 0.080882 1.000000
-0.385910 0.077955 0.963809
-0.400739 0.083172 1.028310
-0.358311 0.076465 0.945385
-0.352422 0.077392 0.956848
-0.342742 0.077517 0.958397
-0.326971 0.076230 0.942482
-0.296819 0.078934 0.975916
-0.280640 0.077352 0.956349
-0.264876 0.075768 0.936772
-0.254662 0.075710 0.936054
-0.242514 0.078251 0.967469
-0.242753 0.081819 1.011584
-0.411096 0.091578 1.000000
-0.384203 0.087873 0.959545
-0.388472 0.091288 0.996834
-0.381323 0.092136 1.006100
-0.349995 0.087022 0.950258
-0.338267 0.086622 0.945882
-0.325948 0.086040 0.939534
-0.284417 0.088759 0.969220
-0.266119 0.086190 0.941169
-0.253590 0.092645 1.011657
-0.240618 0.091824 1.002686
-0.234103 0.093505 1.021046
-0.387507 0.098979 0.967797
-0.378671 0.099377 0.971684
-0.370637 0.100013 0.977907
-0.346754 0.096286 0.941459
-0.340170 0.097282 0.951205
-0.331141 0.097620 0.954504
-0.275704 0.096088 0.939530
-0.266627 0.096440 0.942964
-0.234526 0.099951 0.977299
-0.231368 0.103205 1.009114
-0.387636 0.106521 0.942931
-0.380212 0.107272 0.949577
-0.374537 0.108571 0.961075
-0.363697 0.108404 0.959596
-0.346511 0.106280 0.940800
-0.335331 0.105927 0.937673
-0.328555 0.106986 0.947048
-0.287886 0.110826 0.981041
-0.264100 0.105515 0.934027
-0.231869 0.109153 0.966228
-0.230912 0.113773 1.007125
-0.388908 0.116989 0.946027
-0.380818 0.117615 0.951092
-0.376643 0.119518 0.966479
-0.363854 0.118718 0.960009
-0.350919 0.117822 0.952768
-0.338200 0.116948 0.945697
-0.331128 0.118032 0.954465
-0.289748 0.122103 0.987386
-0.264012 0.115466 0.933716
-0.231121 0.119101 0.963111
-0.227341 0.122618 0.991550
-0.396538 0.129600 0.964586
-0.383488 0.128683 0.957760
-0.363004 0.128684 0.957768
-0.352761 0.128684 0.957769
-0.339898 0.127700 0.950444
-0.287212 0.131502 0.978744
-0.268242 0.127462 0.948675
-0.254127 0.125502 0.934088
-0.228266 0.127804 0.951215
-0.227745 0.133460 0.993314
-0.396041 0.139741 0.963377
-0.393840 0.142677 0.983614
-0.376636 0.140189 0.966462
-0.365964 0.140060 0.965576
-0.354839 0.139746 0.963411
-0.349341 0.141695 0.976849
-0.284027 0.140396 0.967893
-0.266907 0.136924 0.943956
-0.257927 0.137519 0.948055
-0.223606 0.135160 0.931798
-0.230286 0.145691 1.004397
-0.408658 0.154825 0.994069
-0.397323 0.154551 0.992313
-0.374353 0.149613 0.960605
-0.369527 0.151851 0.974977
-0.357627 0.151229 0.970979
-0.344055 0.149841 0.962068
-0.322935 0.144979 0.930849
-0.266934 0.147034 0.944050
-0.256689 0.146950 0.943507
-0.227389 0.147581 0.947561
-0.231150 0.157020 1.008163
-0.223951 0.159574 1.024559
-0.393505 0.159322 0.957210
-0.392735 0.163257 0.980853
-0.367260 0.156857 0.942404
-0.348740 0.157597 0.946851
-0.334728 0.155789 0.935986
-0.322560 0.154754 0.929768
-0.238522 0.165437 0.993951
-0.224744 0.163152 0.980225
-0.228837 0.174252 1.046911
-0.392617 0.169176 0.955049
-0.382985 0.169434 0.956502
-0.374340 0.170155 0.960571
-0.364898 0.170543 0.962764
-0.355408 0.170931 0.964954
-0.338354 0.167596 0.946127
-0.340272 0.173742 0.980822
-0.221769 0.171337 0.967248
-0.222664 0.180446 1.018670
-0.395476 0.180697 0.962003
-0.405746 0.195566 1.041160
-0.361160 0.178987 0.952901
-0.345583 0.176241 0.938279
-0.336145 0.176554 0.939948
-0.324863 0.175889 0.936406
-0.315934 0.176496 0.939638
-0.221390 0.181372 0.965598
-0.217477 0.186884 0.994940
-0.392903 0.189743 0.955744
-0.373425 0.185154 0.932628
-0.381820 0.194512 0.979766
-0.360039 0.188592 0.949945
-0.353886 0.190751 0.960822
-0.341462 0.189559 0.954816
-0.319691 0.188764 0.950811
-0.307216 0.187358 0.943728
-0.216231 0.187232 0.943094
-0.217987 0.197989 0.997276
-0.389889 0.198431 0.948412
-0.384636 0.200987 0.960627
-0.364647 0.207141 0.990040
-0.344137 0.201336 0.962297
-0.330302 0.199199 0.952083
-0.320102 0.199189 0.952034
-0.308198 0.198082 0.946745
-0.218703 0.199574 0.953875
-0.212720 0.203613 0.973179
-0.398063 0.212947 0.968296
-0.380402 0.208935 0.950052
-0.370096 0.208854 0.949682
-0.350688 0.209394 0.952140
-0.336073 0.206669 0.939748
-0.326855 0.207197 0.942149
-0.263705 0.213167 0.969294
-0.246854 0.207711 0.944485
-0.236438 0.207435 0.943231
-0.216182 0.207358 0.942882
-0.212837 0.214139 0.973712
-0.203440 0.215214 0.978604
-0.414784 0.232684 1.008971
-0.427012 0.245942 1.066461
-0.369517 0.218668 0.948195
-0.366310 0.229359 0.994556
-0.340135 0.219339 0.951107
-0.332743 0.221187 0.959120
-0.263309 0.223198 0.967839
-0.248767 0.219501 0.951806
-0.227258 0.228583 0.991191
-0.215954 0.227842 0.987975
-0.200751 0.222698 0.965669
-0.406325 0.238510 0.988395
-0.386581 0.232981 0.965485
-0.365795 0.226504 0.938643
-0.358833 0.235097 0.974253
-0.340198 0.229554 0.951282
-0.330305 0.229750 0.952093
-0.336719 0.241661 1.001453
-0.322798 0.239282 0.991594
-0.259299 0.221293 0.917047
-0.218138 0.229586 0.951413
-0.210758 0.232672 0.964201
-0.199100 0.231110 0.957728
-0.392693 0.240724 0.955233
-0.371616 0.233889 0.928110
-0.373487 0.241517 0.958382
-0.356336 0.243809 0.967474
-0.343142 0.241803 0.959514
-0.331385 0.248374 0.985591
-0.323467 0.250405 0.993649
-0.257341 0.229356 0.910123
-0.243345 0.225408 0.894458
-0.231799 0.223499 0.886882
-0.208712 0.240625 0.954841
-0.202536 0.245517 0.974255
-0.387592 0.247681 0.942825
-0.368878 0.242019 0.921272
-0.371733 0.250585 0.953881
-0.364856 0.252889 0.962652
-0.354976 0.253186 0.963781
-0.335494 0.246447 0.938128
-0.321814 0.251437 0.957125
-0.241231 0.232933 0.886685
-0.230284 0.231462 0.881088
-0.219486 0.240273 0.914627
-0.208267 0.250303 0.952807
-0.196370 0.248146 0.944595
-0.368660 0.251723 0.920726
-0.369361 0.259123 0.947795
-0.371426 0.267925 0.979989
-0.347610 0.258026 0.943783
-0.337470 0.257991 0.943653
-0.327579 0.258150 0.944236
-0.265988 0.267295 0.977685
-0.218263 0.248662 0.909530
-0.199590 0.249640 0.913108
-0.200122 0.263183 0.962646
-0.392445 0.271202 0.954630
-0.351125 0.255966 0.901000
-0.355140 0.266198 0.937018
-0.345796 0.266721 0.938857
-0.334147 0.265444 0.934362
-0.330545 0.270677 0.952784
-0.318779 0.269346 0.948097
-0.265126 0.276852 0.974518
-0.208509 0.270998 0.953914
-0.202904 0.277281 0.976029
-0.174265 0.251059 0.883729
-0.375634 0.269357 0.913737
-0.356395 0.262388 0.890095
-0.343678 0.267305 0.906776
-0.345275 0.276346 0.937445
-0.336146 0.277085 0.939953
-0.328217 0.278890 0.946075
-0.316588 0.277565 0.941582
-0.250548 0.282587 0.958618
-0.241247 0.283706 0.962414
-0.232611 0.285743 0.969322
-0.218082 0.294110 0.997706
-0.201101 0.285163 0.967356
-0.186841 0.279312 0.947507
-0.407892 0.303100 0.992205
-0.362805 0.276798 0.906104
-0.365605 0.286589 0.938157
-0.354352 0.285606 0.934939
-0.341913 0.283583 0.928316
-0.345739 0.295332 0.966777
-0.342201 0.301321 0.986383
-0.324705 0.295010 0.965722
-0.304509 0.285751 0.935411
-0.250668 0.305481 1.000000
-0.236178 0.300650 0.984186
-0.214867 0.300289 0.983002
-0.203433 0.298936 0.978574
-0.196979 0.305150 0.998915
0.412433 0.305481 1.000000
