3
-0.400178 -0.296066 0.973440
-0.406795 -0.309001 1.015969
-0.214822 -0.298912 0.982795
-0.152996 -0.301356 0.990833
-0.144645 -0.306109 1.006460
-0.134746 -0.308087 1.012964
-0.123242 -0.306421 1.007485
-0.111236 -0.303068 0.996460
-0.098997 -0.298302 0.980790
0.163035 -0.318373 1.046781
0.161011 -0.294217 0.967361
0.175024 -0.300513 0.988060
0.185393 -0.300192 0.987005
0.196626 -0.301229 0.990414
0.228288 -0.301075 0.989909
0.244952 -0.308735 1.015094
0.284091 -0.304144 1.000000
-0.405570 -0.289505 0.986558
-0.388655 -0.284841 0.970664
-0.224503 -0.301397 1.027083
-0.153304 -0.291344 0.992825
-0.144984 -0.296037 1.008819
-0.135067 -0.297961 1.015376
0.164970 -0.310823 1.059205
0.167687 -0.295641 1.007469
0.187201 -0.310117 1.056801
0.200312 -0.296084 1.008980
0.237983 -0.302825 1.031951
0.248555 -0.302260 1.030023
0.250963 -0.292235 0.995863
0.273996 -0.294093 1.002195
0.286082 -0.295506 1.007009
0.304271 -0.302891 1.032174
0.316086 -0.303637 1.034716
0.319017 -0.296086 1.008985
0.327460 -0.293978 1.001801
0.345004 -0.299915 1.022033
0.357976 -0.301634 1.027892
0.372438 -0.304470 1.037556
0.384204 -0.305001 1.039367
0.391486 -0.302043 1.029286
0.401972 -0.301651 1.027950
0.415837 -0.303748 1.035095
0.429074 -0.305289 1.040348
-0.383922 -0.271117 0.958845
-0.236859 -0.306395 1.083611
0.049954 -0.289461 1.023721
0.059801 -0.284224 1.005200
0.071658 -0.288679 1.020953
0.081678 -0.285536 1.009840
0.172699 -0.313527 1.108834
0.175933 -0.280829 0.993192
0.193873 -0.291844 1.032149
0.203100 -0.274477 0.970726
0.229770 -0.295419 1.044790
0.238039 -0.291857 1.032193
0.246838 -0.289231 1.022909
0.248493 -0.278813 0.986063
0.272470 -0.281796 0.996613
0.282661 -0.281331 0.994966
0.302604 -0.290253 1.026522
0.340571 -0.315233 1.114866
0.331259 -0.296242 1.047703
0.338248 -0.283324 1.002017
0.352566 -0.286248 1.012359
0.361245 -0.284556 1.006372
0.375782 -0.287443 1.016583
0.385762 -0.286779 1.014236
0.402147 -0.290783 1.028396
0.411110 -0.289351 1.023330
0.427116 -0.292820 1.035601
-0.377122 -0.256241 0.941860
-0.217617 -0.284791 1.046799
-0.037196 -0.275252 1.011737
-0.026352 -0.275009 1.010844
-0.015467 -0.273700 1.006031
-0.004710 -0.273842 1.006554
0.005999 -0.271284 0.997152
0.016877 -0.274754 1.009906
0.027627 -0.274244 1.008032
0.039333 -0.280852 1.032319
0.049634 -0.276726 1.017155
0.061351 -0.280561 1.031252
0.071941 -0.278858 1.024992
0.082503 -0.277510 1.020037
0.092220 -0.273966 1.007011
0.145951 -0.273743 1.006190
0.165403 -0.288923 1.061986
0.170777 -0.279142 1.026036
0.179295 -0.275369 1.012168
0.192265 -0.278477 1.023590
0.199718 -0.273688 1.005987
0.254303 -0.286707 1.053843
0.256568 -0.276984 1.018105
0.268497 -0.278062 1.022067
0.280844 -0.279471 1.027245
0.313406 -0.289243 1.063163
0.326227 -0.280707 1.031788
0.332141 -0.276444 1.016120
0.337806 -0.272251 1.000707
0.368743 -0.279475 1.027260
0.368780 -0.271416 0.997639
0.391329 -0.279914 1.028873
0.398058 -0.276939 1.017939
0.410669 -0.278107 1.022232
-0.381277 -0.248880 0.952237
-0.371983 -0.249477 0.954521
-0.366612 -0.252814 0.967287
-0.365506 -0.259370 0.992371
-0.357139 -0.261012 0.998655
-0.368862 -0.277891 1.063233
-0.341697 -0.265614 1.016261
-0.193357 -0.243095 0.930101
-0.189396 -0.265426 1.015541
-0.176893 -0.262986 1.006206
-0.167099 -0.264517 1.012064
-0.146653 -0.248231 0.949753
-0.142448 -0.259057 0.991175
-0.089477 -0.259152 0.991539
-0.078725 -0.258669 0.989691
-0.070163 -0.266348 1.019071
-0.059138 -0.265783 1.016907
-0.047482 -0.261483 1.000456
-0.037230 -0.264674 1.012666
-0.026422 -0.264897 1.013519
-0.015538 -0.264144 1.010638
-0.004757 -0.265734 1.016720
0.006084 -0.264327 1.011336
0.016927 -0.264734 1.012894
0.027928 -0.266339 1.019034
0.038854 -0.266526 1.019752
0.049387 -0.264524 1.012092
0.060331 -0.265050 1.014106
0.073007 -0.271864 1.040176
0.086174 -0.278462 1.065421
0.095403 -0.272282 1.041776
0.103350 -0.264117 1.010535
0.132215 -0.279439 1.069157
0.145957 -0.262991 1.006226
0.157590 -0.264454 1.011826
0.167459 -0.262957 1.006098
0.179348 -0.264623 1.012470
0.190641 -0.265269 1.014941
0.202424 -0.266490 1.019615
0.211321 -0.263982 1.010018
0.222209 -0.264084 1.010407
0.245163 -0.277851 1.063082
0.248950 -0.269638 1.031660
0.257267 -0.266821 1.020880
0.294522 -0.293023 1.121132
0.280190 -0.267859 1.024851
0.290869 -0.267600 1.023860
0.325801 -0.288862 1.105211
0.325936 -0.278864 1.066959
0.327330 -0.270584 1.035277
0.328664 -0.262797 1.005483
0.341011 -0.264030 1.010201
0.347616 -0.260879 0.998146
0.376037 -0.273800 1.047581
0.375114 -0.265225 1.014774
0.389616 -0.267732 1.024367
0.405296 -0.270890 1.036449
0.408343 -0.265661 1.016442
0.422001 -0.267427 1.023200
-0.363011 -0.247058 0.985597
-0.355165 -0.248947 0.993133
-0.354799 -0.256358 1.022696
-0.343117 -0.255803 1.020483
-0.206253 -0.248697 0.992135
-0.201407 -0.256026 1.021374
-0.189618 -0.254863 1.016735
-0.178308 -0.254242 1.014256
-0.169971 -0.258053 1.029460
-0.152151 -0.246998 0.985356
-0.142968 -0.249362 0.994789
-0.134349 -0.253170 1.009979
-0.025686 -0.246982 0.985292
-0.015278 -0.249101 0.993746
-0.004658 -0.249543 0.995509
0.006039 -0.251624 1.003813
0.016867 -0.253010 1.009340
0.027634 -0.252751 1.008308
0.038533 -0.253510 1.011335
0.049059 -0.252013 1.005365
0.059777 -0.251870 1.004792
0.068993 -0.246403 0.982983
0.079958 -0.247804 0.988572
0.092813 -0.254051 1.013495
0.102277 -0.250679 1.000044
0.113262 -0.251320 1.002599
0.136532 -0.254724 1.016180
0.152269 -0.263138 1.049747
0.159411 -0.256563 1.023515
0.163345 -0.246002 0.981384
0.182448 -0.258182 1.029972
0.191860 -0.256041 1.021432
0.201858 -0.254872 1.016769
0.215782 -0.258525 1.031343
0.223362 -0.254592 1.015654
0.234218 -0.254585 1.015625
0.248210 -0.257836 1.028592
0.254647 -0.253296 1.010483
0.276373 -0.263715 1.052047
0.279277 -0.256061 1.021513
0.290834 -0.256618 1.023734
0.307167 -0.261196 1.042000
0.322113 -0.264316 1.054445
0.324622 -0.257364 1.026710
0.327375 -0.251054 1.001540
0.348476 -0.258770 1.032318
0.357919 -0.257619 1.027729
0.368584 -0.257391 1.026818
0.373174 -0.253057 1.009528
0.387376 -0.255301 1.018480
0.399476 -0.256074 1.021565
0.402939 -0.251418 1.002990
0.415726 -0.252670 1.007985
-0.348869 -0.248994 1.037591
-0.192510 -0.222222 0.926029
-0.189668 -0.230816 0.961840
-0.182829 -0.235253 0.980332
-0.175736 -0.239884 0.999626
-0.165226 -0.240146 1.000719
-0.152010 -0.236240 0.984443
-0.140180 -0.234068 0.975393
-0.132375 -0.238806 0.995137
-0.122342 -0.240004 1.000128
-0.112315 -0.241443 1.006125
0.027388 -0.239813 0.999332
0.038085 -0.239867 0.999556
0.049723 -0.244529 1.018985
0.060924 -0.245751 1.024076
0.092074 -0.241275 1.005424
0.102795 -0.241199 1.005108
0.114191 -0.242571 1.010826
0.124336 -0.241279 1.005439
0.135946 -0.242810 1.011820
0.146105 -0.241713 1.007250
0.154117 -0.237459 0.989522
0.167145 -0.240984 1.004213
0.180326 -0.244291 1.017994
0.193675 -0.247436 1.031097
0.200250 -0.242053 1.008668
0.214987 -0.246583 1.027543
0.222035 -0.242281 1.009617
0.233448 -0.242922 1.012286
0.254887 -0.253475 1.056265
0.257364 -0.245076 1.021265
0.270401 -0.247007 1.029312
0.278216 -0.244204 1.017631
0.292225 -0.246844 1.028632
0.299963 -0.244188 1.017562
0.310356 -0.243803 1.015958
0.313676 -0.238075 0.992091
0.336758 -0.247231 1.030244
0.340937 -0.242369 1.009984
0.350991 -0.241854 1.007836
0.366608 -0.245088 1.021314
0.373383 -0.242395 1.010091
0.384255 -0.242439 1.010273
0.399337 -0.245063 1.021210
0.406443 -0.242784 1.011712
0.417566 -0.242960 1.012446
-0.197587 -0.229737 1.002000
-0.186340 -0.229084 0.999154
-0.174234 -0.227233 0.991080
-0.165710 -0.230115 1.003650
-0.154300 -0.229113 0.999278
-0.144879 -0.231133 1.008088
-0.133294 -0.229748 1.002050
-0.122601 -0.229792 1.002243
-0.111383 -0.228769 0.997780
-0.100250 -0.227719 0.993201
-0.090363 -0.229588 1.001353
-0.076306 -0.219941 0.959278
-0.049195 -0.237661 1.036563
-0.039057 -0.243571 1.062338
0.026897 -0.225017 0.981413
0.037997 -0.228651 0.997264
0.147158 -0.232605 1.014508
0.156796 -0.230820 1.006726
0.179610 -0.232477 1.013952
0.193774 -0.236528 1.031621
0.204481 -0.236151 1.029977
0.216161 -0.236880 1.033155
0.229228 -0.238983 1.042326
0.238332 -0.236950 1.033463
0.245117 -0.232895 1.015774
0.256121 -0.233023 1.016333
0.271289 -0.236774 1.032693
0.277229 -0.232493 1.014020
0.288157 -0.232559 1.014311
0.296658 -0.230734 1.006350
0.303212 -0.227575 0.992572
0.323146 -0.234332 1.022043
0.330456 -0.231792 1.010964
0.338266 -0.229753 1.002071
0.353889 -0.232983 1.016158
0.357038 -0.228052 0.994653
0.404875 -0.231068 1.007809
0.417555 -0.232126 1.012420
-0.208621 -0.219354 1.003527
-0.198291 -0.219801 1.005573
-0.182243 -0.213597 0.977189
-0.175846 -0.218638 1.000251
-0.155750 -0.220477 1.008666
-0.143058 -0.217582 0.995420
-0.132114 -0.217092 0.993178
-0.121404 -0.216935 0.992462
-0.110285 -0.215947 0.987943
-0.100653 -0.217970 0.997197
-0.090199 -0.218482 0.999538
-0.077419 -0.212740 0.973270
-0.069099 -0.219374 1.003617
-0.059158 -0.222352 1.017243
-0.048122 -0.221632 1.013949
-0.037004 -0.220006 1.006510
-0.025937 -0.217470 0.994908
-0.015274 -0.217155 0.993469
-0.004658 -0.217601 0.995507
0.005965 -0.216732 0.991532
0.026957 -0.215002 0.983620
0.037752 -0.216575 0.990816
0.046622 -0.208841 0.955434
0.057646 -0.211801 0.968972
0.274550 -0.219506 1.004223
0.291279 -0.224113 1.025302
0.296152 -0.219596 1.004634
0.312225 -0.223408 1.022074
0.324274 -0.224181 1.025611
-0.208193 -0.208193 1.001469
-0.200294 -0.211157 1.015727
-0.185737 -0.207040 0.995924
-0.175845 -0.207938 1.000244
-0.165635 -0.208553 1.003199
-0.155775 -0.209723 1.008828
-0.145771 -0.210859 1.014292
-0.133168 -0.208118 1.001106
-0.123190 -0.209355 1.007059
-0.112739 -0.209951 1.009924
-0.102307 -0.210711 1.013582
-0.090656 -0.208845 1.004606
-0.080147 -0.209460 1.007564
-0.069429 -0.209637 1.008413
-0.058943 -0.210705 1.013551
-0.048211 -0.211177 1.015822
-0.037067 -0.209597 1.008220
-0.025970 -0.207096 0.996194
-0.015082 -0.203940 0.981009
-0.004643 -0.206287 0.992299
0.005954 -0.205757 0.989753
0.016478 -0.204989 0.986058
0.027196 -0.206293 0.992330
0.037604 -0.205173 0.986944
0.048345 -0.205962 0.990738
0.296867 -0.209355 1.007059
0.294511 -0.200422 0.964088
0.341554 -0.210343 1.011812
0.345877 -0.206464 0.993152
0.355402 -0.205829 0.990095
0.364954 -0.205245 0.987290
-0.207346 -0.196679 0.997396
-0.162927 -0.194588 0.986795
-0.155588 -0.198695 1.007618
-0.145742 -0.199972 1.014095
-0.134495 -0.199377 1.011079
-0.124082 -0.200022 1.014350
-0.111163 -0.196366 0.995809
-0.101648 -0.198583 1.007053
-0.090400 -0.197541 1.001768
-0.080046 -0.198433 1.006293
-0.069627 -0.199416 1.011277
-0.059265 -0.200955 1.019080
-0.048371 -0.200978 1.019195
-0.037294 -0.200031 1.014395
0.016308 -0.192435 0.975872
0.026861 -0.193272 0.980117
0.037265 -0.192861 0.978033
0.048682 -0.196730 0.997656
0.060211 -0.199576 1.012088
0.069492 -0.195241 0.990101
0.080426 -0.196081 0.994362
0.260364 -0.195439 0.991107
0.267250 -0.192760 0.977521
0.281030 -0.195068 0.989225
0.293739 -0.196492 0.996449
0.305250 -0.197043 0.999244
0.318392 -0.198574 1.007007
0.330563 -0.199419 1.011293
0.352370 -0.205840 1.043853
0.362734 -0.205387 1.041554
-0.112434 -0.187839 1.007194
-0.101989 -0.188443 1.010434
-0.091365 -0.188820 1.012456
-0.078295 -0.183566 0.984284
-0.067632 -0.183198 0.982310
-0.057192 -0.183409 0.983441
-0.047084 -0.185019 0.992074
-0.037483 -0.190139 1.019525
0.048438 -0.185125 0.992644
0.058738 -0.184133 0.987322
0.069230 -0.183955 0.986369
0.079314 -0.182881 0.980607
0.089965 -0.183213 0.982390
0.101838 -0.185704 0.995746
0.113070 -0.186665 1.000901
0.122027 -0.184030 0.986772
0.212129 -0.189086 1.013880
0.221380 -0.187736 1.006641
0.227047 -0.183612 0.984527
0.246608 -0.190592 1.021955
0.253279 -0.187440 1.005055
0.264101 -0.187492 1.005332
0.268346 -0.183053 0.981531
0.276484 -0.181504 0.973224
0.294010 -0.186006 0.997366
0.326488 -0.186279 0.998828
0.346518 -0.191443 1.026517
0.359845 -0.192700 1.033261
-0.119932 -0.172361 0.980428
-0.113312 -0.178450 1.015061
-0.102669 -0.178820 1.017167
-0.089989 -0.175312 0.997212
-0.079658 -0.176052 1.001420
-0.069382 -0.177161 1.007730
-0.057485 -0.173776 0.988474
-0.047710 -0.176730 1.005276
-0.036652 -0.175263 0.996935
-0.025984 -0.175228 0.996733
-0.015370 -0.175751 0.999708
-0.004717 -0.177229 1.008114
0.089651 -0.172103 0.978960
0.098902 -0.170008 0.967040
0.108200 -0.168382 0.957794
0.118493 -0.168452 0.958193
0.134062 -0.175414 0.997792
0.146771 -0.177883 1.011838
0.157721 -0.178028 1.012662
0.171016 -0.180632 1.027471
0.181904 -0.180531 1.026900
0.189448 -0.177313 1.008592
0.200002 -0.177106 1.007417
0.209745 -0.176239 1.002487
0.228009 -0.182268 1.036781
0.237109 -0.172742 0.982592
0.240558 -0.167816 0.954575
0.269827 -0.180571 1.027126
0.281517 -0.181025 1.029707
0.282778 -0.174989 0.995377
0.299941 -0.178876 1.017486
0.307725 -0.177093 1.007343
0.315235 -0.175279 0.997024
-0.280263 -0.163652 0.991188
-0.259566 -0.157526 0.954082
-0.120800 -0.163047 0.987525
-0.112870 -0.166939 1.011095
-0.102839 -0.168221 1.018860
-0.089291 -0.163369 0.989475
-0.079263 -0.164521 0.996452
-0.069206 -0.165961 1.005170
-0.058224 -0.165304 1.001192
-0.047988 -0.166945 1.011130
-0.015025 -0.161352 0.977258
-0.004576 -0.161455 0.977882
0.006121 -0.167987 1.017441
0.016853 -0.166511 1.008504
0.025606 -0.154258 0.934294
0.038044 -0.164858 0.998492
0.092890 -0.149960 0.908258
0.109176 -0.159565 0.966436
0.115409 -0.154087 0.933254
0.123686 -0.151993 0.920572
0.141620 -0.161199 0.976333
0.153279 -0.162489 0.984143
0.168012 -0.166663 1.009422
0.180162 -0.167924 1.017065
0.191107 -0.167984 1.017425
0.279132 -0.168571 1.020980
0.276595 -0.160750 0.973614
0.290230 -0.162555 0.984544
0.304141 -0.164383 0.995614
0.316711 -0.165386 1.001689
-0.320717 -0.152126 0.985199
-0.271573 -0.148306 0.960458
-0.251642 -0.142824 0.924956
-0.129952 -0.164037 1.062338
-0.110623 -0.153018 0.990972
-0.097825 -0.149654 0.969185
-0.086194 -0.147487 0.955154
-0.077943 -0.151300 0.979850
-0.069320 -0.155465 1.006819
-0.056068 -0.148871 0.964120
-0.046242 -0.150449 0.974335
-0.036589 -0.153676 0.995232
-0.025918 -0.153514 0.994188
0.005826 -0.149538 0.968439
0.016396 -0.151495 0.981108
0.027043 -0.152362 0.986723
0.038049 -0.154198 0.998616
0.049552 -0.156803 1.015485
0.058692 -0.152334 0.986546
0.083705 -0.159801 1.034903
0.089277 -0.150533 0.974880
0.278547 -0.151399 0.980486
0.279867 -0.146597 0.949389
0.299380 -0.151328 0.980028
0.313725 -0.153214 0.992245
0.297182 -0.140387 0.909170
-0.320538 -0.141510 0.984650
-0.270259 -0.137366 0.955811
-0.263859 -0.139385 0.969861
-0.033576 -0.131254 0.913280
-0.024329 -0.134121 0.933233
-0.015259 -0.142634 0.992469
-0.004675 -0.143588 0.999106
0.025936 -0.136007 0.946359
0.036325 -0.137017 0.953382
0.047555 -0.140060 0.974558
0.060486 -0.146118 1.016710
0.067588 -0.138394 0.962967
0.079232 -0.140784 0.979598
0.087335 -0.137058 0.953669
0.101591 -0.129243 0.899293
0.120530 -0.140076 0.974667
0.283763 -0.143551 0.998846
0.292392 -0.142549 0.991877
0.297731 -0.140070 0.974629
0.317591 -0.144359 1.004473
-0.259890 -0.127072 0.955273
-0.025417 -0.129691 0.974964
-0.014518 -0.125613 0.944305
-0.004473 -0.127167 0.955989
0.005672 -0.125405 0.942741
0.016421 -0.130710 0.982621
0.045350 -0.123626 0.929372
0.057031 -0.127519 0.958632
0.070508 -0.133629 1.004568
0.077086 -0.126778 0.953063
0.088162 -0.128060 0.962699
0.101147 -0.131557 0.988994
0.109092 -0.128458 0.965691
0.119348 -0.128380 0.965105
0.139574 -0.127997 0.962228
0.152689 -0.130408 0.980355
0.277553 -0.129960 0.976987
0.276636 -0.124831 0.938429
0.298418 -0.129946 0.976877
0.329116 -0.138465 1.040926
-0.300704 -0.112996 0.923723
-0.262170 -0.117880 0.963652
-0.256558 -0.120077 0.981614
-0.004478 -0.117070 0.957034
0.005631 -0.114489 0.935932
0.015966 -0.116872 0.955417
0.025308 -0.112962 0.923446
0.035176 -0.112935 0.923228
0.072441 -0.126254 1.032108
0.079389 -0.120068 0.981542
0.091008 -0.121566 0.993785
0.103382 -0.111946 0.915143
0.114153 -0.112919 0.923097
0.128085 -0.116615 0.953313
0.140362 -0.118369 0.967654
0.155208 -0.121902 0.996531
0.175575 -0.129037 1.054861
0.277751 -0.119596 0.977684
0.274032 -0.113714 0.929597
0.279430 -0.111894 0.914722
0.290062 -0.112223 0.917405
-0.305477 -0.104753 0.938386
-0.307012 -0.108856 0.975137
-0.261066 -0.107121 0.959595
-0.251349 -0.107354 0.961684
0.005835 -0.108265 0.969847
0.015940 -0.106478 0.953837
0.025364 -0.103311 0.925467
0.034686 -0.101625 0.910368
0.044773 -0.102426 0.917537
0.058564 -0.109890 0.984402
0.066299 -0.105447 0.944605
0.073540 -0.101498 0.909228
0.086021 -0.104858 0.939322
0.101619 -0.110917 0.993606
0.112913 -0.111576 0.999510
0.142931 -0.109998 0.985368
0.150929 -0.108177 0.969058
0.162535 -0.109009 0.976514
0.176766 -0.111396 0.997897
0.184246 -0.109498 0.980896
0.194560 -0.109399 0.980008
0.263757 -0.103641 0.928425
0.272224 -0.103087 0.923464
0.279280 -0.102056 0.914229
0.294981 -0.104148 0.932964
-0.271690 -0.100799 0.998644
-0.247296 -0.095503 0.946174
0.043555 -0.090093 0.892578
0.054409 -0.092312 0.914558
0.065792 -0.094615 0.937377
0.072891 -0.090964 0.901202
0.083039 -0.091524 0.906759
0.096139 -0.094883 0.940029
0.105910 -0.094629 0.937520
0.119281 -0.097359 0.964562
0.128402 -0.096462 0.955672
0.163479 -0.099138 0.982184
0.174093 -0.099200 0.982806
0.185292 -0.099570 0.986464
0.196408 -0.099857 0.989316
0.276916 -0.094817 0.939378
0.288694 -0.095389 0.945048
0.289619 -0.092458 0.916003
-0.271866 -0.090177 0.999291
-0.250199 -0.086386 0.957282
0.042987 -0.079497 0.880949
0.062459 -0.080304 0.889886
0.073894 -0.082444 0.913597
0.083424 -0.082206 0.910961
0.090740 -0.080065 0.887236
0.101047 -0.080718 0.894474
0.111235 -0.081172 0.899503
0.125643 -0.084387 0.935131
0.137073 -0.085276 0.944981
0.147260 -0.085322 0.945495
0.282498 -0.086479 0.958316
0.290786 -0.085900 0.951894
-0.296910 -0.075015 0.943051
-0.265344 -0.077582 0.975318
-0.251162 -0.076441 0.960968
0.071682 -0.070497 0.886247
0.081786 -0.071041 0.893082
0.094623 -0.073595 0.925199
0.107066 -0.075389 0.947751
0.110651 -0.071175 0.894777
0.125031 -0.074023 0.930581
0.136995 -0.075126 0.944446
0.144133 -0.073613 0.925419
0.264678 -0.074110 0.931668
0.280389 -0.075660 0.951159
-0.296930 -0.064934 0.943117
-0.261830 -0.066262 0.962402
-0.254179 -0.066958 0.972509
0.081425 -0.061217 0.889138
0.092552 -0.062306 0.904956
0.105077 -0.064041 0.930153
0.110900 -0.061744 0.896792
0.124097 -0.063592 0.923630
0.141841 -0.067326 0.977856
0.239261 -0.062707 0.910774
0.249125 -0.062738 0.911226
0.261340 -0.063336 0.919916
0.271332 -0.063372 0.920438
0.281496 -0.063445 0.921485
0.295225 -0.064288 0.933736
0.303695 -0.063968 0.929096
0.308209 -0.062862 0.913031
0.320664 -0.063394 0.920754
0.329219 -0.063146 0.917155
-0.313134 -0.057840 0.994584
-0.252576 -0.053991 0.928389
-0.251198 -0.055893 0.961105
0.076080 -0.054702 0.940619
0.094393 -0.053675 0.922958
0.098246 -0.050577 0.869685
0.108782 -0.051157 0.879660
0.122633 -0.053080 0.912730
0.135538 -0.054340 0.934398
0.146772 -0.054803 0.942364
0.216361 -0.052142 0.896608
0.224819 -0.051881 0.892121
0.240283 -0.053192 0.914665
0.249945 -0.053167 0.914224
0.259807 -0.053184 0.914521
0.268177 -0.052906 0.909735
-0.366577 -0.045903 0.967193
-0.358702 -0.046221 0.973900
-0.291339 -0.045462 0.957897
-0.257090 -0.046684 0.983649
-0.242287 -0.045873 0.966565
0.076056 -0.044628 0.940330
0.097709 -0.041049 0.864928
0.110208 -0.042296 0.891195
0.121522 -0.042926 0.904459
0.129293 -0.042303 0.891344
0.219642 -0.043198 0.910207
0.232395 -0.043767 0.922182
0.234964 -0.042449 0.894417
0.238534 -0.041408 0.872486
-0.365842 -0.035487 0.965256
-0.362151 -0.036149 0.983262
-0.352579 -0.036246 0.985904
-0.259199 -0.036460 0.991719
-0.243353 -0.035692 0.970818
0.121979 -0.033377 0.907863
0.130021 -0.032955 0.896363
0.215494 -0.032831 0.893016
0.230433 -0.033617 0.914396
-0.369459 -0.024715 0.948045
-0.354507 -0.024384 0.935347
-0.357127 -0.025278 0.969621
-0.348087 -0.025375 0.973342
-0.340048 -0.025553 0.980176
-0.263378 -0.026270 1.007708
-0.237330 -0.024682 0.946789
0.124494 -0.024156 0.926580
0.134316 -0.024140 0.925976
-0.377351 -0.014887 0.968297
-0.356725 -0.014470 0.941200
-0.361236 -0.015079 0.980778
-0.350498 -0.015068 0.980084
-0.298764 -0.014589 0.948940
-0.294407 -0.014882 0.967986
-0.257561 -0.015151 0.985452
-0.247497 -0.015180 0.987349
0.124995 -0.014303 0.930309
0.135394 -0.014351 0.933408
-0.375898 -0.004513 0.964569
-0.367574 -0.004538 0.969824
-0.368542 -0.004682 1.000615
-0.351457 -0.004599 0.982766
-0.307778 -0.004574 0.977569
-0.291169 -0.004480 0.957339
-0.289544 -0.004617 0.986694
-0.258851 -0.004634 0.990388
-0.252672 -0.004717 1.007994
-0.362879 0.005602 0.931161
-0.357265 0.005671 0.942624
-0.362735 0.005925 0.984850
-0.353691 0.005950 0.989012
-0.343354 0.005954 0.989706
-0.317722 0.006071 1.009155
-0.322065 0.006371 1.058920
-0.280482 0.005750 0.955813
-0.270129 0.005747 0.955349
-0.268442 0.006179 1.027082
-0.255022 0.006121 1.017368
-0.363132 0.015572 0.931810
-0.356244 0.015707 0.939930
-0.351236 0.015936 0.953627
-0.342086 0.015985 0.956561
-0.317093 0.016831 1.007157
-0.304615 0.016737 1.001547
-0.267326 0.017092 1.022812
-0.254320 0.016955 1.014566
-0.247164 0.017212 1.029963
-0.376106 0.026450 0.965101
-0.359048 0.025963 0.947329
-0.342970 0.025520 0.931184
-0.342641 0.026258 0.958114
-0.288133 0.025964 0.947355
-0.288618 0.026955 0.983538
-0.255176 0.027899 1.017981
-0.241967 0.027634 1.008309
-0.388165 0.035976 0.944219
-0.403082 0.038357 1.006696
-0.401145 0.039220 1.029353
-0.345464 0.035738 0.937958
-0.347137 0.036985 0.970686
-0.251885 0.038286 1.004852
-0.236031 0.037476 0.983571
-0.373093 0.044286 0.907556
-0.369437 0.045023 0.922668
-0.369481 0.046264 0.948101
-0.361789 0.046580 0.954561
-0.347120 0.045989 0.942453
-0.332764 0.045405 0.930496
-0.289937 0.048213 0.988033
-0.259019 0.050422 1.033314
-0.247586 0.050345 1.031723
-0.381553 0.055217 0.928136
-0.368339 0.054728 0.919926
-0.353948 0.055558 0.933872
-0.338845 0.054732 0.919986
-0.327726 0.054519 0.916407
-0.318752 0.054661 0.918792
-0.276061 0.053999 0.907663
-0.287173 0.058220 0.978612
-0.250282 0.059400 0.998460
-0.249466 0.061845 1.039558
-0.385412 0.065802 0.937523
-0.374363 0.065623 0.934969
-0.361815 0.065164 0.928431
-0.346923 0.064245 0.915339
-0.337820 0.064376 0.917201
-0.325456 0.063875 0.910061
-0.281847 0.065042 0.926690
-0.248323 0.069531 0.990644
-0.239112 0.069935 0.996412
-0.411096 0.080882 1.000000
-0.376799 0.076115 0.941053
-0.391464 0.081247 1.004511
-0.350067 0.074706 0.923633
-0.343725 0.075482 0.933236
-0.331301 0.074930 0.926404
-0.316469 0.073782 0.912211
-0.289042 0.076866 0.950344
-0.272093 0.074996 0.927224
-0.258091 0.073827 0.912776
-0.247513 0.073585 0.909776
-0.241563 0.077944 0.963674
-0.242400 0.081700 1.010112
-0.411096 0.091578 1.000000
-0.379051 0.086694 0.946678
-0.380833 0.089493 0.977233
-0.373659 0.090285 0.985881
-0.340695 0.084710 0.925009
-0.325433 0.083335 0.909997
-0.314293 0.082964 0.905940
-0.273615 0.085388 0.932412
-0.257418 0.083372 0.910394
-0.258951 0.094604 1.033043
-0.242192 0.092424 1.009247
-0.229604 0.091708 1.001420
-0.391503 0.100000 0.977776
-0.366127 0.096085 0.939496
-0.362524 0.097824 0.956501
-0.339146 0.094173 0.920803
-0.333212 0.095292 0.931748
-0.325594 0.095984 0.938514
-0.266362 0.092832 0.907692
-0.258618 0.093543 0.914641
-0.230913 0.098411 0.962244
-0.228478 0.101916 0.996512
-0.375538 0.103197 0.913503
-0.366955 0.103532 0.916470
-0.366266 0.106173 0.939851
-0.355490 0.105957 0.937943
-0.333307 0.102230 0.904951
-0.325588 0.102849 0.910429
-0.320110 0.104236 0.922706
-0.275601 0.106097 0.939177
-0.256268 0.102386 0.906329
-0.225524 0.106166 0.939788
-0.231324 0.113976 1.008922
-0.377536 0.113568 0.918365
-0.371414 0.114710 0.927605
-0.374597 0.118869 0.961229
-0.360098 0.117492 0.950099
-0.343544 0.115346 0.932745
-0.330114 0.114152 0.923085
-0.325021 0.115855 0.936861
-0.277245 0.116834 0.944779
-0.255787 0.111869 0.904628
-0.232749 0.119940 0.969895
-0.228163 0.123062 0.995137
-0.386660 0.126372 0.940559
-0.373952 0.125483 0.933943
-0.358116 0.126951 0.944870
-0.344224 0.125570 0.934590
-0.330976 0.124348 0.925495
-0.284331 0.130184 0.968928
-0.261644 0.124327 0.925342
-0.246276 0.121625 0.905233
-0.220982 0.123725 0.920861
-0.224714 0.131684 0.980093
-0.388641 0.137130 0.945377
-0.394493 0.142913 0.985244
-0.366803 0.136529 0.941231
-0.358462 0.137189 0.945785
-0.343731 0.135371 0.933250
-0.340316 0.138035 0.951611
-0.275594 0.136228 0.939154
-0.257505 0.132101 0.910703
-0.250265 0.133434 0.919895
-0.222292 0.134366 0.926320
-0.231318 0.146344 1.008899
-0.405712 0.153709 0.986902
-0.394213 0.153342 0.984545
-0.365237 0.145970 0.937213
-0.357672 0.146980 0.943700
-0.353587 0.149521 0.960012
-0.343278 0.149503 0.959896
-0.315320 0.141560 0.908898
-0.257450 0.141811 0.910509
-0.250327 0.143307 0.920120
-0.229075 0.148675 0.954586
-0.231005 0.156922 1.007533
-0.221143 0.157573 1.011711
-0.384079 0.155505 0.934279
-0.386076 0.160489 0.964224
-0.363867 0.155408 0.933696
-0.343615 0.155282 0.932938
-0.326680 0.152044 0.913482
-0.315104 0.151177 0.908277
-0.238641 0.165520 0.994449
-0.219782 0.159550 0.958582
-0.223104 0.169886 1.020682
-0.385055 0.165918 0.936654
-0.377331 0.166933 0.942382
-0.377926 0.171785 0.969772
-0.358915 0.167747 0.946979
-0.349928 0.168296 0.950076
-0.324942 0.160953 0.908624
-0.331399 0.169212 0.955247
-0.216829 0.167521 0.945702
-0.226685 0.183705 1.037069
-0.387944 0.177256 0.943682
-0.421603 0.203208 1.081850
-0.353518 0.175200 0.932739
-0.339588 0.173184 0.922003
-0.326878 0.171688 0.914037
-0.314901 0.170495 0.907691
-0.306624 0.171295 0.911946
-0.214751 0.175933 0.936638
-0.211950 0.182134 0.969653
-0.386852 0.186821 0.941025
-0.367828 0.182379 0.918650
-0.370411 0.188700 0.950489
-0.352152 0.184460 0.929134
-0.346185 0.186601 0.939915
-0.334225 0.185542 0.934581
-0.311495 0.183925 0.926435
-0.301078 0.183614 0.924873
-0.211608 0.183229 0.922931
-0.218290 0.198263 0.998659
-0.380812 0.193812 0.926333
-0.384901 0.201125 0.961288
-0.364884 0.207275 0.990682
-0.338736 0.198176 0.947194
-0.324629 0.195778 0.935732
-0.312289 0.194327 0.928796
-0.302534 0.194442 0.929346
-0.213996 0.195279 0.933346
-0.206737 0.197886 0.945804
-0.392810 0.210138 0.955519
-0.372605 0.204653 0.930580
-0.368919 0.208189 0.946659
-0.355815 0.212456 0.966062
-0.332178 0.204274 0.928857
-0.317793 0.201453 0.916027
-0.265335 0.214484 0.975284
-0.239332 0.201381 0.915704
-0.229756 0.201572 0.916571
-0.210424 0.201835 0.917768
-0.206129 0.207389 0.943023
-0.194916 0.206198 0.937604
-0.412696 0.231512 1.003891
-0.411676 0.237109 1.028159
-0.368145 0.217856 0.944673
-0.361190 0.226153 0.980654
-0.338498 0.218283 0.946528
-0.323649 0.215143 0.932909
-0.263386 0.223263 0.968120
-0.241948 0.213484 0.925714
-0.222969 0.224269 0.972483
-0.206539 0.217908 0.944900
-0.192027 0.213021 0.923707
-0.395616 0.232224 0.962345
-0.382974 0.230807 0.956475
-0.359730 0.222748 0.923080
-0.365276 0.239319 0.991747
-0.333861 0.225278 0.933562
-0.324259 0.225545 0.934667
-0.333451 0.239316 0.991734
-0.319635 0.236937 0.981878
-0.256653 0.219035 0.907689
-0.211089 0.222167 0.920668
-0.201702 0.222674 0.922772
-0.186908 0.216957 0.899081
-0.381575 0.233909 0.928189
-0.360812 0.227089 0.901127
-0.367525 0.237662 0.943083
-0.348015 0.238115 0.944882
-0.335273 0.236258 0.937511
-0.331405 0.248389 0.985650
-0.323951 0.250779 0.995135
-0.254511 0.226834 0.900115
-0.245205 0.227131 0.901295
-0.236215 0.227758 0.903781
-0.199920 0.230489 0.914618
-0.192510 0.233364 0.926030
-0.376505 0.240596 0.915855
-0.358534 0.235232 0.895438
-0.370322 0.249634 0.950259
-0.357914 0.248078 0.944338
-0.350312 0.249859 0.951118
-0.330299 0.242631 0.923602
-0.314223 0.245506 0.934548
-0.240496 0.232223 0.883984
-0.231746 0.232932 0.886681
-0.222615 0.243698 0.927664
-0.202056 0.242837 0.924389
-0.188549 0.238263 0.906975
-0.353723 0.241524 0.883422
-0.357418 0.250745 0.917149
-0.371910 0.268274 0.981265
-0.346005 0.256835 0.939425
-0.333834 0.255211 0.933487
-0.325503 0.256514 0.938252
-0.265833 0.267139 0.977116
-0.221686 0.252561 0.923794
-0.193404 0.241903 0.884810
-0.192697 0.253419 0.926930
-0.394004 0.272279 0.958422
-0.338770 0.246959 0.869297
-0.355041 0.266124 0.936757
-0.342534 0.264205 0.930001
-0.332025 0.263758 0.928428
-0.320928 0.262802 0.925064
-0.320712 0.270979 0.953847
-0.263418 0.275068 0.968239
-0.202651 0.263384 0.927112
-0.194897 0.266339 0.937513
-0.166136 0.239349 0.842507
-0.367427 0.263472 0.893773
-0.352791 0.259734 0.881094
-0.335001 0.260557 0.883884
-0.343899 0.275244 0.933708
-0.326955 0.269508 0.914251
-0.319364 0.271367 0.920557
-0.309051 0.270957 0.919164
-0.245697 0.277116 0.940058
-0.236890 0.278582 0.945032
-0.233630 0.286994 0.973567
-0.211882 0.285749 0.969342
-0.194157 0.275316 0.933951
-0.181997 0.272070 0.922940
-0.412276 0.306358 1.002869
-0.350681 0.267548 0.875825
-0.364529 0.285745 0.935394
-0.338487 0.272819 0.893081
-0.338493 0.280747 0.919031
-0.351842 0.300546 0.983843
-0.337351 0.297051 0.972402
-0.315707 0.286835 0.938962
-0.290751 0.272841 0.893150
-0.251605 0.306622 1.003735
-0.237025 0.301729 0.987716
-0.212465 0.296931 0.972012
-0.198021 0.290982 0.952536
-0.188710 0.292340 0.956981
0.404435 0.299557 0.980607
