3
-0.401913 -0.297350 0.977662
-0.410166 -0.311562 1.024387
-0.215103 -0.299303 0.984082
-0.152996 -0.301356 0.990833
-0.144571 -0.305953 1.005946
-0.134417 -0.307335 1.010489
-0.123097 -0.306061 1.006302
-0.111118 -0.302747 0.995406
-0.098544 -0.296937 0.976301
0.162641 -0.317603 1.044250
0.160825 -0.293878 0.966245
0.174263 -0.299207 0.983765
0.185393 -0.300192 0.987005
0.196575 -0.301151 0.990157
0.228141 -0.300881 0.989270
0.244915 -0.308688 1.014938
0.284091 -0.304144 1.000000
-0.406581 -0.290226 0.989016
-0.389666 -0.285581 0.973188
-0.224222 -0.301020 1.025801
-0.153304 -0.291344 0.992825
-0.144721 -0.295500 1.006987
-0.134554 -0.296830 1.011520
0.164568 -0.310066 1.056626
0.167317 -0.294989 1.005248
0.185427 -0.307179 1.046788
0.200320 -0.296095 1.009017
0.236499 -0.300937 1.025515
0.244591 -0.297439 1.013597
0.248644 -0.289536 0.986663
0.273790 -0.293872 1.001441
0.283622 -0.292965 0.998349
0.299495 -0.298137 1.015974
0.312697 -0.300381 1.023622
0.314834 -0.292204 0.995755
0.325969 -0.292639 0.997239
0.342554 -0.297785 1.014774
0.354919 -0.299059 1.019115
0.365093 -0.298465 1.017094
0.378491 -0.300466 1.023912
0.385771 -0.297634 1.014260
0.399303 -0.299648 1.021124
0.411423 -0.300523 1.024107
0.422487 -0.300602 1.024376
-0.383008 -0.270471 0.956560
-0.237210 -0.306849 1.085216
0.049794 -0.288533 1.020438
0.059788 -0.284163 1.004983
0.071658 -0.288678 1.020952
0.081860 -0.286171 1.012084
0.175401 -0.318432 1.126180
0.176318 -0.281444 0.995366
0.191848 -0.288795 1.021366
0.198870 -0.268761 0.950510
0.227664 -0.292710 1.035212
0.234307 -0.287281 1.016009
0.244074 -0.285992 1.011453
0.246113 -0.276142 0.976616
0.271637 -0.280935 0.993567
0.281429 -0.280105 0.990630
0.302305 -0.289966 1.025506
0.338733 -0.313532 1.108850
0.331862 -0.296782 1.049611
0.338352 -0.283412 1.002326
0.352664 -0.286328 1.012640
0.359937 -0.283526 1.002731
0.375911 -0.287542 1.016932
0.384232 -0.285642 1.010213
0.400424 -0.289537 1.023990
0.410441 -0.288879 1.021662
0.426209 -0.292198 1.033402
-0.375690 -0.255269 0.938285
-0.217081 -0.284090 1.044223
-0.037196 -0.275252 1.011737
-0.026352 -0.275009 1.010844
-0.015467 -0.273700 1.006031
-0.004710 -0.273842 1.006554
0.005999 -0.271284 0.997152
0.016859 -0.274472 1.008870
0.027628 -0.274256 1.008076
0.039253 -0.280283 1.030230
0.049470 -0.275810 1.013788
0.061251 -0.280102 1.029562
0.071791 -0.278274 1.022845
0.082483 -0.277443 1.019790
0.092103 -0.273619 1.005733
0.144322 -0.270688 0.994960
0.169513 -0.296102 1.088375
0.170149 -0.278115 1.022262
0.179823 -0.276181 1.015152
0.192265 -0.278477 1.023590
0.199506 -0.273397 1.004917
0.252032 -0.284147 1.044430
0.255041 -0.275336 1.012047
0.267640 -0.277174 1.018803
0.279820 -0.278452 1.023499
0.312675 -0.288568 1.060683
0.327213 -0.281555 1.034906
0.333446 -0.277531 1.020112
0.338736 -0.273001 1.003463
0.369226 -0.279841 1.028606
0.369537 -0.271974 0.999687
0.392073 -0.280446 1.030828
0.398737 -0.277412 1.019676
0.409381 -0.277234 1.019024
-0.379242 -0.247552 0.947155
-0.371983 -0.249477 0.954521
-0.366612 -0.252814 0.967287
-0.366414 -0.260014 0.994838
-0.357435 -0.261228 0.999483
-0.369410 -0.278303 1.064813
-0.342058 -0.265894 1.017335
-0.195211 -0.245426 0.939020
-0.189385 -0.265411 1.015486
-0.176444 -0.262318 1.003652
-0.166710 -0.263901 1.009707
-0.147366 -0.249437 0.954369
-0.142330 -0.258842 0.990351
-0.089485 -0.259175 0.991625
-0.078736 -0.258704 0.989824
-0.070168 -0.266365 1.019136
-0.059037 -0.265326 1.015159
-0.047482 -0.261483 1.000456
-0.037230 -0.264674 1.012666
-0.026422 -0.264897 1.013519
-0.015538 -0.264144 1.010638
-0.004765 -0.266179 1.018422
0.006117 -0.265765 1.016840
0.016866 -0.263787 1.009270
0.027886 -0.265938 1.017502
0.038849 -0.266492 1.019622
0.049248 -0.263781 1.009248
0.060050 -0.263817 1.009387
0.073065 -0.272079 1.040997
0.085874 -0.277495 1.061720
0.094504 -0.269716 1.031956
0.102904 -0.262977 1.006171
0.132432 -0.279897 1.070909
0.144545 -0.260447 0.996492
0.157375 -0.264093 1.010441
0.166973 -0.262195 1.003181
0.178571 -0.263476 1.008083
0.189606 -0.263829 1.009432
0.201622 -0.265436 1.015579
0.210663 -0.263161 1.006876
0.221475 -0.263212 1.007073
0.245175 -0.277865 1.063137
0.249144 -0.269848 1.032463
0.258144 -0.267730 1.024358
0.293311 -0.291818 1.116523
0.279768 -0.267456 1.023308
0.289174 -0.266040 1.017893
0.325222 -0.288349 1.103247
0.325328 -0.278344 1.064970
0.326969 -0.270285 1.034133
0.328406 -0.262591 1.004695
0.341454 -0.264373 1.011516
0.347531 -0.260815 0.997900
0.376258 -0.273961 1.048197
0.375751 -0.265675 1.016497
0.386596 -0.265657 1.016428
0.400740 -0.267845 1.024798
0.410275 -0.266917 1.021249
0.423780 -0.268554 1.027512
-0.364401 -0.248004 0.989372
-0.355609 -0.249258 0.994375
-0.356183 -0.257358 1.026686
-0.342040 -0.255000 1.017281
-0.206270 -0.248717 0.992216
-0.201248 -0.255824 1.020566
-0.188951 -0.253966 1.013154
-0.177091 -0.252506 1.007331
-0.169767 -0.257744 1.028225
-0.151917 -0.246619 0.983845
-0.142888 -0.249223 0.994232
-0.134815 -0.254049 1.013487
-0.025870 -0.248749 0.992343
-0.015410 -0.251257 1.002348
-0.004697 -0.251615 1.003777
0.006046 -0.251906 1.004939
0.016821 -0.252312 1.006555
0.027553 -0.252007 1.005341
0.038470 -0.253095 1.009680
0.048945 -0.251427 1.003028
0.059675 -0.251440 1.003079
0.068997 -0.246419 0.983048
0.079999 -0.247931 0.989079
0.092545 -0.253316 1.010562
0.102065 -0.250158 0.997964
0.112766 -0.250220 0.998210
0.136281 -0.254256 1.014312
0.151236 -0.261352 1.042622
0.158478 -0.255062 1.017526
0.163321 -0.245965 0.981238
0.182473 -0.258216 1.030110
0.191040 -0.254947 1.017069
0.201066 -0.253872 1.012779
0.215512 -0.258202 1.030052
0.222679 -0.253814 1.012547
0.233959 -0.254303 1.014499
0.246625 -0.256189 1.022025
0.255387 -0.254032 1.013419
0.277980 -0.265248 1.058161
0.279453 -0.256222 1.022156
0.291126 -0.256876 1.024762
0.307317 -0.261324 1.042509
0.320951 -0.263362 1.050640
0.324893 -0.257579 1.027568
0.326216 -0.250165 0.997993
0.346791 -0.257518 1.027326
0.353778 -0.254639 1.015838
0.366993 -0.256280 1.022387
0.373416 -0.253221 1.010183
0.385490 -0.254058 1.013521
0.398117 -0.255203 1.018090
0.402947 -0.251423 1.003008
0.416904 -0.253385 1.010839
-0.345119 -0.246318 1.026438
-0.191531 -0.221092 0.921320
-0.188930 -0.229918 0.958098
-0.182455 -0.234772 0.978324
-0.175723 -0.239865 0.999550
-0.165080 -0.239933 0.999834
-0.152194 -0.236527 0.985639
-0.141088 -0.235584 0.981708
-0.133102 -0.240118 1.000604
-0.122416 -0.240149 1.000732
-0.112314 -0.241441 1.006117
0.027181 -0.237997 0.991763
0.038070 -0.239777 0.999183
0.049539 -0.243621 1.015202
0.060683 -0.244778 1.020020
0.091945 -0.240936 1.004010
0.102598 -0.240736 1.003178
0.113656 -0.241436 1.006094
0.124166 -0.240950 1.004069
0.135613 -0.242214 1.009337
0.145941 -0.241442 1.006118
0.154991 -0.238807 0.995138
0.167161 -0.241008 1.004310
0.179205 -0.242773 1.011666
0.191019 -0.244042 1.016957
0.199589 -0.241254 1.005336
0.213128 -0.244451 1.018658
0.222434 -0.242717 1.011432
0.232598 -0.242036 1.008597
0.252592 -0.251193 1.046753
0.257817 -0.245507 1.023061
0.271262 -0.247794 1.032590
0.278210 -0.244199 1.017610
0.288313 -0.243540 1.014861
0.297591 -0.242257 1.009516
0.310244 -0.243715 1.015591
0.312850 -0.237449 0.989479
0.336449 -0.247004 1.029300
0.342205 -0.243270 1.013739
0.349200 -0.240620 1.002695
0.364396 -0.243609 1.015151
0.373394 -0.242402 1.010123
0.383167 -0.241752 1.007412
0.400559 -0.245813 1.024335
0.408675 -0.244117 1.017269
0.422035 -0.245560 1.023281
-0.197058 -0.229122 0.999319
-0.185241 -0.227733 0.993261
-0.174057 -0.227002 0.990074
-0.165576 -0.229930 1.002843
-0.154900 -0.230003 1.003160
-0.145588 -0.232263 1.013020
-0.133780 -0.230585 1.005701
-0.122630 -0.229847 1.002481
-0.111307 -0.228612 0.997097
-0.100241 -0.227701 0.993120
-0.090359 -0.229580 1.001315
-0.076306 -0.219941 0.959278
-0.049299 -0.238163 1.038750
-0.039047 -0.243509 1.062067
0.026956 -0.225511 0.983572
0.037908 -0.228112 0.994914
0.146898 -0.232194 1.012718
0.156255 -0.230024 1.003253
0.177588 -0.229859 1.002534
0.189277 -0.231039 1.007680
0.198870 -0.229671 1.001715
0.210977 -0.231199 1.008377
0.223023 -0.232513 1.014111
0.232887 -0.231537 1.009853
0.240329 -0.228346 0.995934
0.254908 -0.231919 1.011518
0.270405 -0.236002 1.029327
0.277629 -0.232829 1.015486
0.285755 -0.230621 1.005858
0.296774 -0.230824 1.006744
0.302561 -0.227086 0.990440
0.322534 -0.233888 1.020108
0.330187 -0.231604 1.010144
0.339225 -0.230405 1.004913
0.351781 -0.231595 1.010103
0.356977 -0.228013 0.994484
0.406974 -0.232266 1.013034
0.420966 -0.234021 1.020688
-0.208923 -0.219671 1.004978
-0.197828 -0.219288 1.003224
-0.181644 -0.212895 0.973977
-0.175616 -0.218351 0.998939
-0.155934 -0.220738 1.009860
-0.143362 -0.218044 0.997536
-0.131597 -0.216242 0.989292
-0.121209 -0.216587 0.990869
-0.110687 -0.216735 0.991548
-0.100610 -0.217878 0.996777
-0.090357 -0.218865 1.001290
-0.077600 -0.213238 0.975549
-0.069195 -0.219676 1.005001
-0.059145 -0.222302 1.017014
-0.048252 -0.222233 1.016699
-0.036996 -0.219957 1.006286
-0.025937 -0.217474 0.994926
-0.015275 -0.217170 0.993538
-0.004659 -0.217644 0.995704
0.005965 -0.216720 0.991479
0.027089 -0.216049 0.988409
0.037821 -0.216971 0.992624
0.046855 -0.209886 0.960213
0.057777 -0.212281 0.971167
0.273046 -0.218303 0.998719
0.287686 -0.221349 1.012655
0.294048 -0.218036 0.997497
0.308661 -0.220858 1.010410
0.322405 -0.222889 1.019698
-0.206923 -0.206923 0.995362
-0.199036 -0.209831 1.009349
-0.182355 -0.203270 0.977788
-0.175302 -0.207296 0.997155
-0.165564 -0.208463 1.002766
-0.154979 -0.208652 1.003677
-0.145316 -0.210201 1.011128
-0.133028 -0.207897 1.000046
-0.123134 -0.209261 1.006604
-0.112739 -0.209951 1.009924
-0.102305 -0.210707 1.013564
-0.090625 -0.208774 1.004263
-0.080211 -0.209627 1.008366
-0.069495 -0.209834 1.009363
-0.058944 -0.210706 1.013558
-0.048196 -0.211112 1.015510
-0.037067 -0.209595 1.008214
-0.025934 -0.206807 0.994801
-0.015094 -0.204090 0.981734
-0.004637 -0.205996 0.990899
0.005937 -0.205164 0.986899
0.016467 -0.204846 0.985370
0.027186 -0.206218 0.991970
0.037396 -0.204038 0.981481
0.048127 -0.205032 0.986265
0.297751 -0.209979 1.010058
0.293971 -0.200055 0.962321
0.339556 -0.209112 1.005892
0.344135 -0.205424 0.988150
0.355241 -0.205735 0.989647
0.365156 -0.205359 0.987836
-0.207293 -0.196629 0.997140
-0.162551 -0.194140 0.984520
-0.155580 -0.198684 1.007564
-0.145784 -0.200030 1.014388
-0.134512 -0.199403 1.011209
-0.123741 -0.199473 1.011567
-0.111319 -0.196642 0.997206
-0.101426 -0.198150 1.004857
-0.090364 -0.197462 1.001365
-0.079933 -0.198154 1.004877
-0.069533 -0.199149 1.009920
-0.059077 -0.200320 1.015861
-0.048288 -0.200633 1.017450
-0.037296 -0.200040 1.014439
0.016254 -0.191799 0.972646
0.026852 -0.193201 0.979761
0.037184 -0.192442 0.975910
0.048577 -0.196303 0.995490
0.059866 -0.198433 1.006290
0.069344 -0.194823 0.987983
0.080406 -0.196030 0.994105
0.265396 -0.199216 1.010261
0.270386 -0.195022 0.988991
0.281227 -0.195205 0.989919
0.293795 -0.196529 0.996637
0.304697 -0.196686 0.997433
0.318286 -0.198508 1.006672
0.330546 -0.199409 1.011241
0.352088 -0.205675 1.043019
0.362718 -0.205378 1.041508
-0.111903 -0.186952 1.002441
-0.101731 -0.187967 1.007882
-0.090987 -0.188040 1.008274
-0.078215 -0.183379 0.983278
-0.067537 -0.182940 0.980924
-0.057192 -0.183410 0.983447
-0.047147 -0.185268 0.993407
-0.037477 -0.190108 1.019361
0.048218 -0.184284 0.988134
0.058692 -0.183989 0.986548
0.069109 -0.183631 0.984633
0.079264 -0.182765 0.979989
0.089935 -0.183152 0.982064
0.101324 -0.184767 0.990724
0.111924 -0.184774 0.990759
0.120056 -0.181057 0.970830
0.214618 -0.191305 1.025779
0.221872 -0.188153 1.008879
0.228072 -0.184441 0.988974
0.246264 -0.190326 1.020529
0.253279 -0.187440 1.005054
0.264569 -0.187824 1.007113
0.270133 -0.184272 0.988068
0.276183 -0.181306 0.972166
0.292115 -0.184808 0.990939
0.326488 -0.186279 0.998828
0.346622 -0.191500 1.026825
0.360132 -0.192854 1.034084
-0.118892 -0.170867 0.971926
-0.112649 -0.177405 1.009118
-0.102064 -0.177767 1.011175
-0.089311 -0.173990 0.989694
-0.079288 -0.175232 0.996759
-0.069134 -0.176527 1.004125
-0.057487 -0.173784 0.988520
-0.047710 -0.176730 1.005276
-0.036781 -0.175878 1.000432
-0.025986 -0.175236 0.996777
-0.015349 -0.175517 0.998377
-0.004717 -0.177229 1.008114
0.089329 -0.171486 0.975451
0.098853 -0.169924 0.966563
0.107861 -0.167854 0.954792
0.118206 -0.168044 0.955872
0.133387 -0.174531 0.992772
0.146066 -0.177029 1.006978
0.157146 -0.177379 1.008970
0.169744 -0.179288 1.019828
0.182606 -0.181228 1.030863
0.189473 -0.177336 1.008727
0.201033 -0.178019 1.012608
0.211871 -0.178026 1.012650
0.228388 -0.182572 1.038506
0.235391 -0.171490 0.975470
0.240445 -0.167738 0.954128
0.267378 -0.178932 1.017804
0.279697 -0.179854 1.023049
0.282668 -0.174922 0.994993
0.299621 -0.178686 1.016402
0.307494 -0.176960 1.006588
0.315235 -0.175279 0.997024
-0.278806 -0.162802 0.986038
-0.258910 -0.157127 0.951667
-0.120644 -0.162837 0.986252
-0.113020 -0.167161 1.012442
-0.102690 -0.167976 1.017376
-0.089106 -0.163030 0.987423
-0.079196 -0.164381 0.995604
-0.069142 -0.165806 1.004233
-0.058049 -0.164805 0.998171
-0.047988 -0.166945 1.011132
-0.014923 -0.160256 0.970618
-0.004566 -0.161104 0.975757
0.006122 -0.168005 1.017555
0.016849 -0.166471 1.008262
0.025601 -0.154233 0.934138
0.038031 -0.164802 0.998153
0.092935 -0.150033 0.908702
0.108743 -0.158932 0.962600
0.116111 -0.155024 0.938933
0.123653 -0.151952 0.920324
0.141267 -0.160797 0.973893
0.153122 -0.162323 0.983137
0.167646 -0.166299 1.007220
0.180396 -0.168143 1.018388
0.191139 -0.168012 1.017596
0.276069 -0.166721 1.009777
0.277112 -0.161051 0.975434
0.290277 -0.162581 0.984702
0.304140 -0.164382 0.995610
0.315873 -0.164948 0.999039
-0.319825 -0.151704 0.982461
-0.270775 -0.147870 0.957633
-0.254203 -0.144277 0.934368
-0.129034 -0.162879 1.054835
-0.110497 -0.152843 0.989840
-0.098284 -0.150354 0.973724
-0.086210 -0.147515 0.955335
-0.077768 -0.150961 0.977655
-0.069073 -0.154911 1.003234
-0.055645 -0.147747 0.956840
-0.046233 -0.150420 0.974150
-0.036435 -0.153029 0.991043
-0.025930 -0.153584 0.994639
0.005821 -0.149401 0.967551
0.016421 -0.151730 0.982634
0.027017 -0.152217 0.985784
0.037964 -0.153855 0.996392
0.049336 -0.156118 1.011049
0.058447 -0.151700 0.982438
0.084595 -0.161499 1.045896
0.090351 -0.152344 0.986608
0.278601 -0.151428 0.980676
0.279867 -0.146597 0.949389
0.299383 -0.151329 0.980036
0.313633 -0.153170 0.991956
0.297213 -0.140401 0.909265
-0.319647 -0.141117 0.981913
-0.269596 -0.137028 0.953463
-0.264681 -0.139819 0.972883
-0.033480 -0.130875 0.910648
-0.024171 -0.133253 0.927191
-0.015181 -0.141914 0.987457
-0.004674 -0.143549 0.998832
0.025927 -0.135958 0.946017
0.036207 -0.136570 0.950272
0.047487 -0.139859 0.973155
0.060475 -0.146091 1.016520
0.067499 -0.138211 0.961695
0.079049 -0.140459 0.977334
0.086821 -0.136252 0.948063
0.100920 -0.128390 0.893353
0.120192 -0.139682 0.971929
0.284273 -0.143809 1.000641
0.292703 -0.142701 0.992933
0.297677 -0.140045 0.974454
0.316984 -0.144084 1.002555
-0.261345 -0.127783 0.960618
-0.025334 -0.129270 0.971801
-0.014481 -0.125292 0.941896
-0.004463 -0.126890 0.953906
0.005672 -0.125421 0.942862
0.016420 -0.130702 0.982566
0.045234 -0.123310 0.926997
0.056935 -0.127305 0.957023
0.070307 -0.133248 1.001700
0.076731 -0.126194 0.948674
0.087616 -0.127267 0.956744
0.100673 -0.130941 0.984357
0.109252 -0.128645 0.967102
0.119597 -0.128648 0.967120
0.140345 -0.128703 0.967537
0.154413 -0.131881 0.991426
0.277815 -0.130083 0.977908
0.277060 -0.125022 0.939867
0.298726 -0.130080 0.977887
0.329515 -0.138633 1.042188
-0.300704 -0.112996 0.923723
-0.260970 -0.117340 0.959240
-0.260084 -0.121727 0.995102
-0.004476 -0.117026 0.956675
0.005624 -0.114345 0.934755
0.015876 -0.116216 0.950047
0.025267 -0.112779 0.921953
0.035167 -0.112905 0.922982
0.071821 -0.125175 1.023285
0.079278 -0.119899 0.980159
0.091022 -0.121583 0.993928
0.104122 -0.112748 0.921697
0.114627 -0.113388 0.926933
0.128592 -0.117076 0.957082
0.139950 -0.118022 0.964817
0.155955 -0.122488 1.001325
0.171565 -0.126090 1.030770
0.277337 -0.119418 0.976228
0.274907 -0.114077 0.932565
0.279284 -0.111836 0.914243
0.288798 -0.111734 0.913407
-0.305570 -0.104785 0.938671
-0.306975 -0.108842 0.975020
-0.261206 -0.107178 0.960110
-0.252120 -0.107683 0.964633
0.005810 -0.107807 0.965741
0.015927 -0.106394 0.953085
0.025233 -0.102778 0.920690
0.034546 -0.101213 0.906671
0.044713 -0.102289 0.916310
0.058566 -0.109893 0.984431
0.065838 -0.104714 0.938038
0.073372 -0.101266 0.907148
0.085936 -0.104754 0.938394
0.101607 -0.110905 0.993495
0.112909 -0.111573 0.999479
0.141715 -0.109062 0.976984
0.150246 -0.107687 0.964669
0.160249 -0.107476 0.962781
0.174658 -0.110067 0.985993
0.184638 -0.109732 0.982985
0.195067 -0.109684 0.982562
0.263348 -0.103480 0.926983
0.272353 -0.103136 0.923902
0.279294 -0.102061 0.914275
0.295783 -0.104431 0.935499
-0.271552 -0.100748 0.998137
-0.247750 -0.095678 0.947911
0.043490 -0.089960 0.891255
0.054345 -0.092203 0.913486
0.065519 -0.094222 0.933486
0.072868 -0.090934 0.900911
0.082994 -0.091475 0.906265
0.096069 -0.094813 0.939344
0.105792 -0.094525 0.936482
0.119298 -0.097373 0.964698
0.127803 -0.096011 0.951211
0.162096 -0.098299 0.973878
0.171967 -0.097989 0.970804
0.185474 -0.099667 0.987433
0.196628 -0.099969 0.990421
0.275288 -0.094260 0.933858
0.288512 -0.095329 0.944449
0.290323 -0.092682 0.918232
-0.270463 -0.089711 0.994132
-0.250818 -0.086599 0.959650
0.043355 -0.080178 0.888489
0.062429 -0.080265 0.889459
0.073873 -0.082420 0.913338
0.082879 -0.081669 0.905017
0.090981 -0.080278 0.889594
0.101110 -0.080768 0.895035
0.111249 -0.081182 0.899613
0.124247 -0.083449 0.924742
0.136183 -0.084722 0.938848
0.146958 -0.085147 0.943557
0.281816 -0.086270 0.956003
0.290786 -0.085900 0.951894
-0.296571 -0.074930 0.941975
-0.265172 -0.077532 0.974685
-0.251145 -0.076435 0.960902
0.071617 -0.070434 0.885451
0.081607 -0.070884 0.891119
0.094534 -0.073526 0.924328
0.106811 -0.075210 0.945497
0.110601 -0.071143 0.894375
0.124681 -0.073816 0.927973
0.136865 -0.075055 0.943550
0.144802 -0.073955 0.929718
0.264075 -0.073941 0.929544
0.280359 -0.075653 0.951061
-0.296638 -0.064870 0.942189
-0.261982 -0.066300 0.962962
-0.254201 -0.066963 0.972596
0.081593 -0.061344 0.890975
0.092428 -0.062223 0.903739
0.104568 -0.063731 0.925643
0.110781 -0.061678 0.895829
0.122965 -0.063012 0.915201
0.141635 -0.067228 0.976433
0.239316 -0.062721 0.910983
0.249125 -0.062738 0.911226
0.261339 -0.063336 0.919913
0.271332 -0.063372 0.920437
0.281496 -0.063445 0.921485
0.295225 -0.064288 0.933736
0.303695 -0.063968 0.929096
0.309689 -0.063164 0.917416
0.320664 -0.063394 0.920754
0.331361 -0.063557 0.923121
-0.312936 -0.057803 0.993952
-0.250366 -0.053518 0.920265
-0.250768 -0.055798 0.959462
0.075997 -0.054643 0.939605
0.094528 -0.053751 0.924271
0.098223 -0.050565 0.869479
0.108769 -0.051151 0.879557
0.121206 -0.052462 0.902107
0.134051 -0.053744 0.924147
0.146559 -0.054724 0.940998
0.216361 -0.052142 0.896608
0.224832 -0.051884 0.892171
0.240292 -0.053195 0.914701
0.249945 -0.053167 0.914224
0.259807 -0.053184 0.914521
0.268177 -0.052906 0.909735
-0.369119 -0.046221 0.973900
-0.359531 -0.046328 0.976148
-0.291381 -0.045468 0.958037
-0.257181 -0.046700 0.983998
-0.242394 -0.045893 0.966991
0.076128 -0.044670 0.941222
0.097690 -0.041041 0.864756
0.110050 -0.042235 0.889918
0.120129 -0.042434 0.894093
0.127299 -0.041651 0.877601
0.220112 -0.043291 0.912154
0.232395 -0.043767 0.922182
0.234964 -0.042449 0.894417
0.238534 -0.041408 0.872486
-0.370311 -0.035921 0.977047
-0.362918 -0.036226 0.985346
-0.352918 -0.036281 0.986850
-0.259421 -0.036491 0.992566
-0.243533 -0.035718 0.971533
0.118909 -0.032537 0.885013
0.127665 -0.032358 0.880124
0.215620 -0.032851 0.893539
0.230433 -0.033617 0.914396
-0.368661 -0.024662 0.945999
-0.354507 -0.024384 0.935347
-0.355450 -0.025159 0.965070
-0.350142 -0.025524 0.979088
-0.339637 -0.025522 0.978993
-0.262719 -0.026205 1.005187
-0.237430 -0.024693 0.947186
0.119872 -0.023259 0.892181
0.129635 -0.023298 0.893705
-0.375343 -0.014808 0.963144
-0.358920 -0.014559 0.946990
-0.361216 -0.015078 0.980724
-0.350463 -0.015067 0.979986
-0.298494 -0.014576 0.948083
-0.293065 -0.014814 0.963573
-0.257272 -0.015134 0.984345
-0.247526 -0.015182 0.987463
0.120604 -0.013800 0.897630
0.131001 -0.013885 0.903124
-0.373751 -0.004488 0.959059
-0.365790 -0.004516 0.965118
-0.368289 -0.004679 0.999928
-0.351124 -0.004594 0.981834
-0.308282 -0.004582 0.979172
-0.291540 -0.004485 0.958556
-0.289893 -0.004622 0.987881
-0.258278 -0.004624 0.988195
-0.252953 -0.004722 1.009115
-0.362907 0.005602 0.931232
-0.357006 0.005667 0.941941
-0.362471 0.005921 0.984131
-0.355667 0.005983 0.994539
-0.341998 0.005931 0.985799
-0.317414 0.006065 1.008178
-0.318903 0.006308 1.048524
-0.280846 0.005758 0.957051
-0.269547 0.005735 0.953290
-0.266955 0.006145 1.021393
-0.254991 0.006120 1.017243
-0.362362 0.015539 0.929834
-0.354054 0.015611 0.934152
-0.351108 0.015931 0.953281
-0.341761 0.015970 0.955654
-0.317153 0.016834 1.007347
-0.300585 0.016516 0.988297
-0.265497 0.016975 1.015813
-0.254126 0.016942 1.013794
-0.247164 0.017212 1.029963
-0.373617 0.026275 0.958715
-0.356744 0.025796 0.941251
-0.342982 0.025521 0.931219
-0.342425 0.026242 0.957511
-0.285845 0.025757 0.939833
-0.287877 0.026886 0.981011
-0.254575 0.027834 1.015585
-0.241967 0.027634 1.008309
-0.388165 0.035976 0.944219
-0.403216 0.038369 1.007030
-0.399387 0.039048 1.024842
-0.345193 0.035710 0.937220
-0.346381 0.036904 0.968571
-0.251944 0.038295 1.005088
-0.236031 0.037476 0.983571
-0.373093 0.044286 0.907556
-0.369396 0.045018 0.922565
-0.368188 0.046102 0.944784
-0.360299 0.046388 0.950630
-0.346555 0.045914 0.940919
-0.332821 0.045413 0.930654
-0.288844 0.048031 0.984306
-0.258557 0.050332 1.031471
-0.247586 0.050345 1.031723
-0.381976 0.055278 0.929165
-0.368590 0.054765 0.920551
-0.353137 0.055431 0.931733
-0.338155 0.054620 0.918112
-0.327704 0.054515 0.916347
-0.316718 0.054312 0.912930
-0.278778 0.054530 0.916598
-0.285230 0.057826 0.971992
-0.249804 0.059287 0.996551
-0.249466 0.061845 1.039558
-0.384893 0.065713 0.936261
-0.374150 0.065586 0.934439
-0.362056 0.065207 0.929049
-0.346979 0.064255 0.915486
-0.337275 0.064272 0.915724
-0.325457 0.063875 0.910064
-0.283074 0.065325 0.930723
-0.247772 0.069376 0.988445
-0.239116 0.069936 0.996427
-0.411096 0.080882 1.000000
-0.377014 0.076158 0.941590
-0.390289 0.081003 1.001497
-0.347486 0.074155 0.916823
-0.341881 0.075077 0.928229
-0.331301 0.074930 0.926404
-0.316469 0.073782 0.912211
-0.287926 0.076569 0.946675
-0.271235 0.074760 0.924299
-0.257315 0.073606 0.910033
-0.246633 0.073323 0.906544
-0.241705 0.077990 0.964243
-0.242370 0.081690 1.009986
-0.411096 0.091578 1.000000
-0.378341 0.086532 0.944905
-0.377156 0.088629 0.967798
-0.370519 0.089526 0.977595
-0.338828 0.084246 0.919939
-0.325433 0.083335 0.909997
-0.314293 0.082964 0.905940
-0.273260 0.085277 0.931200
-0.256686 0.083135 0.907805
-0.259504 0.094806 1.035249
-0.242309 0.092469 1.009735
-0.229604 0.091708 1.001420
-0.390848 0.099833 0.976141
-0.366037 0.096061 0.939266
-0.360642 0.097316 0.951535
-0.338883 0.094100 0.920090
-0.333167 0.095280 0.931623
-0.325594 0.095984 0.938514
-0.264154 0.092063 0.900169
-0.257980 0.093312 0.912382
-0.230880 0.098398 0.962109
-0.228478 0.101916 0.996512
-0.376015 0.103328 0.914665
-0.368981 0.104103 0.921528
-0.365447 0.105936 0.937752
-0.355332 0.105910 0.937524
-0.333602 0.102321 0.905749
-0.325217 0.102732 0.909392
-0.319897 0.104167 0.922094
-0.272943 0.105074 0.930121
-0.256211 0.102363 0.906128
-0.225240 0.106032 0.938604
-0.231324 0.113976 1.008922
-0.377610 0.113590 0.918544
-0.372542 0.115059 0.930423
-0.373599 0.118552 0.958669
-0.358904 0.117103 0.946949
-0.342984 0.115158 0.931224
-0.329998 0.114111 0.922761
-0.325021 0.115855 0.936861
-0.274381 0.115628 0.935022
-0.255674 0.111819 0.904227
-0.232167 0.119640 0.967469
-0.228163 0.123062 0.995137
-0.387142 0.126529 0.941730
-0.373580 0.125358 0.933014
-0.357357 0.126682 0.942867
-0.343011 0.125127 0.931296
-0.330098 0.124018 0.923040
-0.283472 0.129790 0.966000
-0.261246 0.124138 0.923935
-0.246126 0.121551 0.904681
-0.219482 0.122885 0.914610
-0.224649 0.131645 0.979809
-0.388671 0.137141 0.945450
-0.393844 0.142678 0.983623
-0.366845 0.136544 0.941337
-0.358442 0.137181 0.945730
-0.343572 0.135309 0.932820
-0.339723 0.137794 0.949955
-0.273666 0.135274 0.932583
-0.257076 0.131881 0.909188
-0.249993 0.133289 0.918893
-0.221681 0.133997 0.923774
-0.231155 0.146241 1.008187
-0.406001 0.153818 0.987606
-0.392301 0.152598 0.979771
-0.366790 0.146590 0.941197
-0.358840 0.147460 0.946780
-0.351910 0.148811 0.955457
-0.341925 0.148913 0.956111
-0.309064 0.138751 0.890866
-0.257901 0.142059 0.912103
-0.249061 0.142583 0.915467
-0.227924 0.147929 0.949791
-0.230651 0.156681 1.005988
-0.220420 0.157058 1.008406
-0.384079 0.155505 0.934279
-0.385456 0.160231 0.962675
-0.363105 0.155083 0.931742
-0.342534 0.154793 0.930003
-0.325250 0.151378 0.909485
-0.311548 0.149471 0.898028
-0.240887 0.167078 1.003809
-0.219895 0.159632 0.959074
-0.221948 0.169006 1.015395
-0.383829 0.165390 0.933672
-0.374420 0.165645 0.935111
-0.377714 0.171688 0.969228
-0.358915 0.167747 0.946979
-0.349617 0.168146 0.949231
-0.324905 0.160934 0.908521
-0.329797 0.168394 0.950630
-0.216690 0.167413 0.945096
-0.226276 0.183374 1.035196
-0.386074 0.176401 0.939134
-0.419654 0.202269 1.076848
-0.353328 0.175106 0.932238
-0.338651 0.172706 0.919460
-0.326740 0.171615 0.913650
-0.314852 0.170469 0.907549
-0.306605 0.171284 0.911890
-0.214637 0.175840 0.936144
-0.211763 0.181974 0.968801
-0.384399 0.185637 0.935059
-0.368865 0.182893 0.921238
-0.370502 0.188746 0.950723
-0.350866 0.183787 0.925741
-0.345915 0.186455 0.939180
-0.333374 0.185069 0.932201
-0.311495 0.183925 0.926435
-0.300745 0.183411 0.923850
-0.211335 0.182993 0.921742
-0.217889 0.197899 0.996826
-0.381586 0.194206 0.928216
-0.383154 0.200212 0.956924
-0.363610 0.206551 0.987223
-0.337728 0.197586 0.944375
-0.324495 0.195697 0.935346
-0.312278 0.194320 0.928762
-0.302207 0.194232 0.928341
-0.214651 0.195877 0.936202
-0.206343 0.197509 0.944004
-0.392579 0.210014 0.954956
-0.371029 0.203787 0.926643
-0.366365 0.206748 0.940107
-0.354163 0.211469 0.961574
-0.330813 0.203435 0.925041
-0.317733 0.201415 0.915856
-0.264355 0.213692 0.971683
-0.239259 0.201320 0.915427
-0.229667 0.201495 0.916219
-0.209679 0.201121 0.914520
-0.205930 0.207189 0.942113
-0.194990 0.206275 0.937956
-0.412679 0.231503 1.003851
-0.405442 0.233518 1.012590
-0.367985 0.217761 0.944264
-0.360800 0.225909 0.979595
-0.338480 0.218272 0.946478
-0.323820 0.215256 0.933400
-0.262688 0.222671 0.965555
-0.241754 0.213312 0.924972
-0.223516 0.224820 0.974871
-0.206618 0.217991 0.945261
-0.191768 0.212733 0.922458
-0.394036 0.231296 0.958501
-0.380951 0.229588 0.951424
-0.360040 0.222941 0.923877
-0.365218 0.239281 0.991590
-0.333862 0.225279 0.933565
-0.323890 0.225288 0.933602
-0.333624 0.239440 0.992251
-0.320048 0.237243 0.983144
-0.256797 0.219158 0.908199
-0.212669 0.223830 0.927560
-0.201902 0.222895 0.923686
-0.187726 0.217907 0.903016
-0.380202 0.233067 0.924848
-0.361637 0.227608 0.903188
-0.369357 0.238847 0.947784
-0.350150 0.239577 0.950680
-0.336147 0.236874 0.939956
-0.331446 0.248420 0.985771
-0.324094 0.250890 0.995575
-0.254675 0.226980 0.900695
-0.244615 0.226584 0.899124
-0.235572 0.227137 0.901320
-0.199604 0.230124 0.913173
-0.191536 0.232184 0.921344
-0.375949 0.240240 0.914502
-0.358528 0.235228 0.895422
-0.370879 0.250009 0.951689
-0.358850 0.248727 0.946807
-0.350706 0.250140 0.952189
-0.329130 0.241772 0.920332
-0.313956 0.245297 0.933753
-0.239058 0.230835 0.878700
-0.229929 0.231105 0.879728
-0.221285 0.242242 0.922123
-0.201267 0.241889 0.920780
-0.188223 0.237851 0.905406
-0.353895 0.241641 0.883851
-0.358771 0.251694 0.920621
-0.372129 0.268432 0.981843
-0.346287 0.257044 0.940192
-0.332563 0.254240 0.929933
-0.322812 0.254393 0.930494
-0.264562 0.265862 0.972445
-0.220644 0.251375 0.919453
-0.194052 0.242713 0.887773
-0.192650 0.253356 0.926702
-0.391798 0.270754 0.953056
-0.339555 0.247531 0.871310
-0.354615 0.265805 0.935633
-0.342570 0.264233 0.930100
-0.329456 0.261717 0.921244
-0.320800 0.262697 0.924694
-0.321272 0.271452 0.955512
-0.262829 0.274453 0.966073
-0.202672 0.263411 0.927207
-0.195329 0.266929 0.939590
-0.168055 0.242113 0.852238
-0.369034 0.264624 0.897682
-0.354045 0.260657 0.884225
-0.334389 0.260080 0.882268
-0.342539 0.274156 0.930016
-0.325255 0.268107 0.909497
-0.318770 0.270862 0.918842
-0.310224 0.271986 0.922655
-0.245697 0.277116 0.940058
-0.236890 0.278582 0.945032
-0.231700 0.284624 0.965526
-0.211874 0.285739 0.969308
-0.194360 0.275603 0.934926
-0.183592 0.274455 0.931030
-0.408512 0.303561 0.993714
-0.350413 0.267344 0.875156
-0.359194 0.281564 0.921705
-0.338139 0.272539 0.892163
-0.337637 0.280036 0.916705
-0.351373 0.300144 0.982530
-0.337209 0.296926 0.971995
-0.316092 0.287185 0.940107
-0.290665 0.272759 0.892884
-0.251602 0.306619 1.003723
-0.235911 0.300310 0.983072
-0.212166 0.296513 0.970642
-0.198026 0.290990 0.952561
-0.191220 0.296229 0.969713
0.404435 0.299557 0.980607
