3
-0.398153 -0.294568 0.968515
-0.402164 -0.305484 1.004403
-0.213297 -0.296790 0.975820
-0.152996 -0.301356 0.990833
-0.144483 -0.305767 1.005335
-0.134244 -0.306940 1.009193
-0.123282 -0.306520 1.007811
-0.110940 -0.302263 0.993813
-0.098359 -0.296379 0.974467
0.162697 -0.317714 1.044615
0.160812 -0.293853 0.966164
0.174412 -0.299462 0.984605
0.181008 -0.293092 0.963659
0.194644 -0.298193 0.980431
0.227144 -0.299566 0.984948
0.244755 -0.308487 1.014277
0.284091 -0.304144 1.000000
-0.393141 -0.280632 0.956323
-0.385122 -0.282251 0.961839
-0.224301 -0.301126 1.026159
-0.153304 -0.291344 0.992825
-0.144395 -0.294835 1.004722
-0.134247 -0.296152 1.009211
0.164513 -0.309963 1.056273
0.167321 -0.294996 1.005271
0.185112 -0.306658 1.045011
0.200320 -0.296095 1.009017
0.233740 -0.297426 1.013552
0.237809 -0.289191 0.985490
0.246545 -0.287091 0.978332
0.272448 -0.292432 0.996535
0.282464 -0.291769 0.994273
0.297784 -0.296433 1.010170
0.312417 -0.300111 1.022703
0.314661 -0.292043 0.995207
0.325839 -0.292522 0.996840
0.339459 -0.295094 1.005607
0.353321 -0.297712 1.014526
0.364039 -0.297604 1.014158
0.375392 -0.298006 1.015528
0.383372 -0.295783 1.007952
0.398286 -0.298885 1.018523
0.407918 -0.297963 1.015383
0.419777 -0.298675 1.017807
-0.381611 -0.269485 0.953072
-0.239518 -0.309835 1.095776
0.049953 -0.289455 1.023698
0.059838 -0.284399 1.005818
0.071679 -0.288765 1.021257
0.081909 -0.286343 1.012695
0.168887 -0.306606 1.084357
0.176648 -0.281970 0.997228
0.188761 -0.284150 1.004936
0.201246 -0.271972 0.961868
0.226641 -0.291396 1.030564
0.233469 -0.286254 1.012378
0.240885 -0.282256 0.998239
0.244332 -0.274145 0.969552
0.271343 -0.280631 0.992490
0.281241 -0.279917 0.989967
0.297104 -0.284978 1.007865
0.340643 -0.315300 1.115104
0.331355 -0.296328 1.048006
0.336554 -0.281906 0.997001
0.353521 -0.287024 1.015100
0.362441 -0.285498 1.009705
0.377377 -0.288662 1.020896
0.384955 -0.286179 1.012114
0.398456 -0.288114 1.018958
0.409683 -0.288346 1.019776
0.424686 -0.291154 1.029709
-0.369227 -0.250877 0.922144
-0.215428 -0.281926 1.036269
-0.037196 -0.275252 1.011737
-0.026352 -0.275009 1.010844
-0.015467 -0.273700 1.006031
-0.004710 -0.273834 1.006524
0.005997 -0.271212 0.996887
0.016859 -0.274472 1.008870
0.027628 -0.274256 1.008076
0.039055 -0.278865 1.025017
0.049429 -0.275583 1.012953
0.061096 -0.279396 1.026968
0.071554 -0.277356 1.019472
0.082473 -0.277411 1.019672
0.092040 -0.273434 1.005053
0.143827 -0.269758 0.991542
0.166325 -0.290534 1.067907
0.169816 -0.277570 1.020258
0.178514 -0.274170 1.007760
0.188952 -0.273678 1.005952
0.198854 -0.272504 1.001635
0.247147 -0.278640 1.024189
0.255381 -0.275703 1.013396
0.269108 -0.278695 1.024391
0.279807 -0.278439 1.023451
0.305885 -0.282302 1.037650
0.326601 -0.281029 1.032971
0.330996 -0.275492 1.012619
0.334899 -0.269909 0.992096
0.368192 -0.279058 1.025728
0.369359 -0.271843 0.999206
0.390738 -0.279491 1.027318
0.395950 -0.275473 1.012549
0.407595 -0.276025 1.014580
-0.373311 -0.243681 0.932343
-0.379126 -0.254268 0.972851
-0.369637 -0.254900 0.975268
-0.364739 -0.258825 0.990288
-0.356186 -0.260315 0.995989
-0.367609 -0.276946 1.059620
-0.341803 -0.265696 1.016576
-0.195845 -0.246223 0.942069
-0.188095 -0.263602 1.008565
-0.175976 -0.261621 1.000986
-0.166265 -0.263197 1.007015
-0.147063 -0.248925 0.952407
-0.142745 -0.259597 0.993239
-0.088561 -0.256499 0.981388
-0.078164 -0.256825 0.982635
-0.070008 -0.265757 1.016809
-0.058837 -0.264427 1.011720
-0.047482 -0.261483 1.000456
-0.037219 -0.264591 1.012347
-0.026359 -0.264269 1.011117
-0.015538 -0.264144 1.010638
-0.004732 -0.264290 1.011197
0.006151 -0.267227 1.022434
0.016813 -0.262948 1.006061
0.027865 -0.265741 1.016750
0.038611 -0.264855 1.013358
0.049132 -0.263158 1.006865
0.059780 -0.262629 1.004841
0.073024 -0.271928 1.040420
0.085796 -0.277241 1.060749
0.094389 -0.269386 1.030696
0.103059 -0.263374 1.007691
0.130312 -0.275416 1.053766
0.144076 -0.259603 0.993263
0.155029 -0.260156 0.995381
0.165719 -0.260225 0.995642
0.179406 -0.264709 1.012800
0.189041 -0.263043 1.006426
0.199959 -0.263245 1.007200
0.208914 -0.260976 0.998516
0.219651 -0.261045 0.998779
0.241518 -0.273720 1.047277
0.245618 -0.266029 1.017851
0.257234 -0.266786 1.020748
0.291736 -0.290252 1.110528
0.282466 -0.270035 1.033176
0.289610 -0.266442 1.019429
0.316865 -0.280939 1.074899
0.321049 -0.274683 1.050961
0.325243 -0.268858 1.028675
0.328090 -0.262338 1.003727
0.343833 -0.266215 1.018562
0.351346 -0.263678 1.008856
0.377405 -0.274796 1.051392
0.375518 -0.265511 1.015868
0.385533 -0.264927 1.013634
0.398537 -0.266372 1.019164
0.408037 -0.265461 1.015679
0.420549 -0.266507 1.019677
-0.362198 -0.246505 0.983390
-0.354051 -0.248167 0.990020
-0.355970 -0.257204 1.026071
-0.341984 -0.254958 1.017114
-0.204712 -0.246839 0.984725
-0.200698 -0.255125 1.017779
-0.188548 -0.253425 1.010995
-0.176120 -0.251122 1.001810
-0.168292 -0.255504 1.019291
-0.151909 -0.246606 0.983793
-0.142866 -0.249185 0.994080
-0.134890 -0.254189 1.014044
-0.026174 -0.251674 1.004011
-0.015584 -0.254094 1.013666
-0.004731 -0.253426 1.011002
0.006093 -0.253881 1.012817
0.016800 -0.251995 1.005291
0.027503 -0.251551 1.003520
0.038372 -0.252445 1.007087
0.048879 -0.251092 1.001688
0.059653 -0.251348 1.002711
0.068997 -0.246419 0.983048
0.079999 -0.247931 0.989079
0.092356 -0.252798 1.008496
0.102067 -0.250164 0.997988
0.112739 -0.250162 0.997978
0.136141 -0.253995 1.013271
0.147328 -0.254600 1.015683
0.155895 -0.250903 1.000937
0.161906 -0.243835 0.972738
0.181608 -0.256993 1.025231
0.190205 -0.253833 1.012623
0.201030 -0.253825 1.012594
0.215793 -0.258538 1.031393
0.222193 -0.253259 1.010335
0.234418 -0.254802 1.016490
0.248917 -0.258570 1.031522
0.253839 -0.252493 1.007277
0.277028 -0.264340 1.054539
0.278762 -0.255589 1.019628
0.291014 -0.256777 1.024369
0.309001 -0.262756 1.048220
0.319587 -0.262244 1.046177
0.324835 -0.257533 1.027386
0.326944 -0.250724 1.000222
0.350745 -0.260455 1.039040
0.355527 -0.255897 1.020859
0.367387 -0.256555 1.023485
0.374309 -0.253826 1.012598
0.386476 -0.254708 1.016114
0.396933 -0.254444 1.015063
0.402640 -0.251231 1.002244
0.417339 -0.253650 1.011895
-0.344455 -0.245844 1.024463
-0.192298 -0.221977 0.925007
-0.188325 -0.229182 0.955030
-0.182277 -0.234542 0.977369
-0.175723 -0.239865 0.999550
-0.165059 -0.239904 0.999710
-0.152656 -0.237244 0.988627
-0.141601 -0.236440 0.985277
-0.133368 -0.240598 1.002603
-0.122419 -0.240156 1.000760
-0.112314 -0.241441 1.006117
0.026855 -0.235149 0.979898
0.037954 -0.239045 0.996133
0.049393 -0.242906 1.012220
0.060218 -0.242901 1.012198
0.091284 -0.239204 0.996794
0.102441 -0.240368 1.001645
0.113864 -0.241877 1.007933
0.124169 -0.240955 1.004093
0.135577 -0.242150 1.009071
0.145958 -0.241469 1.006235
0.154859 -0.238602 0.994287
0.167267 -0.241160 1.004946
0.178924 -0.242392 1.010077
0.190384 -0.243231 1.013576
0.199341 -0.240954 1.004088
0.212637 -0.243887 1.016309
0.221954 -0.242193 1.009252
0.232635 -0.242075 1.008760
0.252111 -0.250714 1.044759
0.254203 -0.242066 1.008721
0.270136 -0.246766 1.028305
0.277809 -0.243847 1.016144
0.287351 -0.242727 1.011477
0.298415 -0.242928 1.012312
0.309586 -0.243198 1.013438
0.317970 -0.241335 1.005673
0.338862 -0.248776 1.036681
0.345909 -0.245903 1.024712
0.360779 -0.248598 1.035942
0.368555 -0.246389 1.026737
0.373394 -0.242402 1.010123
0.383186 -0.241764 1.007461
0.402174 -0.246804 1.028465
0.406259 -0.242674 1.011254
0.418986 -0.243786 1.015889
-0.196057 -0.227957 0.994239
-0.184417 -0.226721 0.988847
-0.174047 -0.226989 0.990014
-0.165560 -0.229907 1.002743
-0.154935 -0.230054 1.003386
-0.146184 -0.233214 1.017166
-0.134202 -0.231313 1.008877
-0.122632 -0.229852 1.002502
-0.111387 -0.228778 0.997817
-0.100373 -0.227999 0.994420
-0.090359 -0.229580 1.001315
-0.076306 -0.219941 0.959278
-0.049299 -0.238163 1.038750
-0.039047 -0.243509 1.062067
0.027206 -0.227600 0.992680
0.038006 -0.228700 0.997479
0.146912 -0.232215 1.012810
0.156246 -0.230011 1.003195
0.176875 -0.228936 0.998509
0.188540 -0.230139 1.003757
0.199266 -0.230129 1.003712
0.210943 -0.231162 1.008215
0.223033 -0.232524 1.014157
0.233914 -0.232558 1.014307
0.240069 -0.228099 0.994856
0.255730 -0.232667 1.014781
0.276416 -0.241248 1.052208
0.279321 -0.234247 1.021673
0.292755 -0.236270 1.030497
0.300250 -0.233528 1.018536
0.313753 -0.235487 1.027079
0.325921 -0.236344 1.030818
0.331379 -0.232439 1.013788
0.340060 -0.230971 1.007386
0.354980 -0.233701 1.019291
0.366598 -0.234158 1.021286
0.407073 -0.232323 1.013280
0.417616 -0.232159 1.012567
-0.209398 -0.220170 1.007263
-0.197498 -0.218922 1.001551
-0.181931 -0.213231 0.975514
-0.175660 -0.218407 0.999194
-0.155252 -0.219772 1.005439
-0.143865 -0.218808 1.001031
-0.131622 -0.216284 0.989482
-0.121303 -0.216755 0.991636
-0.110735 -0.216829 0.991974
-0.100577 -0.217806 0.996445
-0.090469 -0.219137 1.002535
-0.077982 -0.214287 0.980347
-0.069294 -0.219993 1.006452
-0.059126 -0.222233 1.016701
-0.048265 -0.222291 1.016965
-0.036997 -0.219966 1.006328
-0.025937 -0.217474 0.994926
-0.015278 -0.217212 0.993730
-0.004662 -0.217783 0.996343
0.005965 -0.216720 0.991479
0.027233 -0.217203 0.993685
0.037861 -0.217203 0.993688
0.047628 -0.213349 0.976054
0.059329 -0.217983 0.997258
0.273555 -0.218710 1.000583
0.291108 -0.223982 1.024700
0.300025 -0.222468 1.017772
0.311406 -0.222822 1.019394
0.325227 -0.224840 1.028626
-0.206613 -0.206613 0.993869
-0.198678 -0.209453 1.007531
-0.182090 -0.202975 0.976370
-0.175124 -0.207086 0.996144
-0.165266 -0.208088 1.000962
-0.154765 -0.208363 1.002287
-0.145758 -0.210841 1.014207
-0.133049 -0.207931 1.000210
-0.123116 -0.209231 1.006460
-0.112721 -0.209918 1.009766
-0.102189 -0.210469 1.012415
-0.090423 -0.208309 1.002025
-0.080074 -0.209268 1.006640
-0.069598 -0.210145 1.010859
-0.058930 -0.210658 1.013325
-0.048196 -0.211112 1.015510
-0.037067 -0.209596 1.008218
-0.025937 -0.206827 0.994899
-0.015097 -0.204132 0.981934
-0.004640 -0.206130 0.991546
0.005937 -0.205164 0.986899
0.016467 -0.204846 0.985370
0.027186 -0.206218 0.991970
0.037396 -0.204038 0.981481
0.048127 -0.205032 0.986265
0.302246 -0.213149 1.025306
0.302544 -0.205889 0.990385
0.345201 -0.212589 1.022615
0.356882 -0.213033 1.024752
0.374848 -0.217091 1.044269
0.377509 -0.212306 1.021255
-0.208014 -0.197312 1.000606
-0.162115 -0.193619 0.981876
-0.155580 -0.198684 1.007564
-0.145788 -0.200034 1.014410
-0.134546 -0.199453 1.011465
-0.123120 -0.198472 1.006487
-0.111319 -0.196642 0.997206
-0.101426 -0.198150 1.004857
-0.090354 -0.197441 1.001262
-0.079891 -0.198049 1.004343
-0.069520 -0.199110 1.009725
-0.058931 -0.199825 1.013350
-0.048102 -0.199862 1.013540
-0.037296 -0.200040 1.014439
0.016254 -0.191799 0.972646
0.026851 -0.193195 0.979725
0.037170 -0.192370 0.975546
0.048569 -0.196271 0.995325
0.059874 -0.198457 1.006415
0.069766 -0.196010 0.994006
0.080406 -0.196030 0.994105
0.271195 -0.203569 1.032335
0.272829 -0.196784 0.997927
0.282655 -0.196196 0.994947
0.298871 -0.199925 1.013856
0.317809 -0.205150 1.040356
0.331843 -0.206963 1.049549
0.343912 -0.207473 1.052133
0.353605 -0.206561 1.047510
0.361373 -0.204616 1.037646
-0.110949 -0.185359 0.993894
-0.101691 -0.187893 1.007484
-0.090796 -0.187644 1.006149
-0.078203 -0.183350 0.983126
-0.067558 -0.182998 0.981237
-0.057197 -0.183424 0.983518
-0.047399 -0.186260 0.998725
-0.037523 -0.190342 1.020614
0.048079 -0.183755 0.985295
0.058841 -0.184457 0.989059
0.069693 -0.185185 0.992965
0.079801 -0.184004 0.986629
0.091675 -0.186695 1.001059
0.103946 -0.189549 1.016363
0.112887 -0.186364 0.999288
0.123602 -0.186405 0.999507
0.213161 -0.190006 1.018816
0.221169 -0.187557 1.005682
0.228334 -0.184653 0.990110
0.245490 -0.189728 1.017321
0.258747 -0.191487 1.026754
0.270292 -0.191887 1.028897
0.273172 -0.186345 0.999182
0.277299 -0.182039 0.976093
0.291545 -0.184447 0.989004
0.346487 -0.197689 1.060008
0.350628 -0.193713 1.038691
0.358795 -0.192138 1.030245
-0.118312 -0.170033 0.967182
-0.112067 -0.176489 1.003905
-0.101803 -0.177313 1.008591
-0.089209 -0.173793 0.988573
-0.079195 -0.175028 0.995595
-0.069053 -0.176321 1.002951
-0.057499 -0.173818 0.988716
-0.047906 -0.177455 1.009404
-0.036771 -0.175834 1.000184
-0.025996 -0.175309 0.997197
-0.015347 -0.175491 0.998229
-0.004717 -0.177229 1.008114
0.090869 -0.174443 0.992268
0.100862 -0.173377 0.986208
0.111609 -0.173688 0.987973
0.122847 -0.174643 0.993404
0.135501 -0.177297 1.008505
0.153112 -0.185569 1.055558
0.164811 -0.186031 1.058185
0.174609 -0.184426 1.049054
0.179071 -0.177719 1.010905
0.187989 -0.175947 1.000826
0.198410 -0.175696 0.999397
0.211380 -0.177613 1.010301
0.224468 -0.179438 1.020683
0.234385 -0.170757 0.971301
0.243885 -0.170137 0.967778
0.276656 -0.185141 1.053122
0.283965 -0.182598 1.038658
0.283482 -0.175426 0.997858
0.303872 -0.181221 1.030822
0.311082 -0.179025 1.018335
0.315655 -0.175512 0.998351
-0.279590 -0.163260 0.988812
-0.260513 -0.158100 0.957562
-0.120479 -0.162613 0.984896
-0.112873 -0.166944 1.011129
-0.101027 -0.165256 1.000903
-0.088601 -0.162107 0.981833
-0.079085 -0.164152 0.994215
-0.069150 -0.165825 1.004349
-0.058155 -0.165106 0.999994
-0.048062 -0.167201 1.012686
-0.014923 -0.160260 0.970643
-0.004566 -0.161119 0.975844
0.006121 -0.167999 1.017517
0.016849 -0.166471 1.008262
0.025543 -0.153884 0.932023
0.038044 -0.164859 0.998495
0.093566 -0.151051 0.914869
0.108984 -0.159284 0.964731
0.116833 -0.155987 0.944766
0.127710 -0.156937 0.950515
0.150826 -0.171678 1.039796
0.162702 -0.172478 1.044643
0.172915 -0.171526 1.038881
0.179396 -0.167211 1.012741
0.190829 -0.167739 1.015942
0.279210 -0.168618 1.021266
0.286304 -0.166393 1.007790
0.295511 -0.165513 1.002460
0.305008 -0.164851 0.998451
0.315500 -0.164754 0.997860
-0.316271 -0.150017 0.971542
-0.270816 -0.147892 0.957779
-0.253394 -0.143818 0.931393
-0.129076 -0.162932 1.055182
-0.110557 -0.152926 0.990377
-0.098142 -0.150137 0.972317
-0.086408 -0.147854 0.957533
-0.077556 -0.150551 0.974996
-0.069114 -0.155004 1.003836
-0.055744 -0.148010 0.958541
-0.046256 -0.150495 0.974636
-0.036461 -0.153136 0.991738
-0.025930 -0.153584 0.994639
0.005821 -0.149409 0.967598
0.016430 -0.151816 0.983189
0.027029 -0.152288 0.986246
0.038024 -0.154099 0.997973
0.049543 -0.156774 1.015300
0.058894 -0.152860 0.989949
0.083537 -0.159480 1.032825
0.087855 -0.148135 0.959351
0.278199 -0.151209 0.979259
0.281500 -0.147453 0.954931
0.302111 -0.152708 0.988967
0.313509 -0.153109 0.991562
0.294993 -0.139352 0.902473
-0.316157 -0.139577 0.971194
-0.269415 -0.136937 0.952825
-0.264371 -0.139656 0.971743
-0.033480 -0.130875 0.910648
-0.024173 -0.133262 0.927253
-0.015182 -0.141918 0.987486
-0.004674 -0.143549 0.998832
0.025948 -0.136067 0.946775
0.036207 -0.136570 0.950272
0.047487 -0.139859 0.973155
0.060475 -0.146091 1.016520
0.067701 -0.138625 0.964572
0.079381 -0.141049 0.981436
0.086940 -0.136439 0.949360
0.099328 -0.126364 0.879255
0.115860 -0.134648 0.936901
0.285648 -0.144504 1.005481
0.295081 -0.143861 1.001002
0.298808 -0.140577 0.978155
0.317510 -0.144323 1.004218
-0.260535 -0.127387 0.957642
-0.025425 -0.129733 0.975282
-0.014551 -0.125897 0.946444
-0.004467 -0.127002 0.954746
0.005663 -0.125208 0.941260
0.016418 -0.130684 0.982430
0.045234 -0.123310 0.926997
0.056968 -0.127377 0.957567
0.070549 -0.133706 1.005149
0.076731 -0.126194 0.948674
0.087616 -0.127267 0.956744
0.101108 -0.131506 0.988608
0.109222 -0.128611 0.966842
0.118163 -0.127105 0.955525
0.137569 -0.126158 0.948402
0.150269 -0.128341 0.964814
0.281462 -0.131790 0.990746
0.286258 -0.129173 0.971070
0.297741 -0.129651 0.974661
0.328540 -0.138223 1.039104
-0.305337 -0.114736 0.937954
-0.260320 -0.117048 0.956853
-0.261463 -0.122373 1.000379
-0.004534 -0.118522 0.968899
0.005681 -0.115514 0.944314
0.015891 -0.116319 0.950894
0.025214 -0.112541 0.920008
0.035167 -0.112905 0.922982
0.072448 -0.126266 1.032209
0.079462 -0.120178 0.982442
0.091022 -0.121583 0.993928
0.104405 -0.113054 0.924201
0.114379 -0.113143 0.924925
0.129262 -0.117686 0.962070
0.139644 -0.117765 0.962710
0.156173 -0.122660 1.002726
0.172304 -0.126633 1.035206
0.276201 -0.118929 0.972228
0.283412 -0.117607 0.961417
0.280194 -0.112200 0.917223
0.290080 -0.112230 0.917464
-0.306268 -0.105024 0.940814
-0.307184 -0.108917 0.975685
-0.261063 -0.107119 0.959584
-0.252411 -0.107807 0.965746
0.005864 -0.108805 0.974683
0.015948 -0.106530 0.954308
0.025205 -0.102664 0.919674
0.034483 -0.101029 0.905023
0.044787 -0.102458 0.917825
0.058566 -0.109893 0.984431
0.065431 -0.104066 0.932232
0.073344 -0.101226 0.906795
0.085926 -0.104742 0.938291
0.101607 -0.110905 0.993495
0.112909 -0.111573 0.999479
0.141595 -0.108969 0.976157
0.151134 -0.108323 0.970370
0.161417 -0.108259 0.969796
0.175666 -0.110703 0.991682
0.178013 -0.105794 0.947714
0.187498 -0.105428 0.944434
0.260480 -0.102353 0.916889
0.271659 -0.102873 0.921548
0.279294 -0.102061 0.914275
0.298704 -0.105462 0.944738
-0.270713 -0.100436 0.995052
-0.247551 -0.095602 0.947152
0.043640 -0.090268 0.894315
0.054310 -0.092144 0.912901
0.065569 -0.094295 0.934203
0.072453 -0.090417 0.895788
0.082722 -0.091175 0.903301
0.096069 -0.094813 0.939344
0.105792 -0.094525 0.936482
0.119298 -0.097373 0.964698
0.127944 -0.096117 0.952263
0.162959 -0.098823 0.979064
0.172990 -0.098572 0.976578
0.180311 -0.096893 0.959947
0.189515 -0.096353 0.954594
0.274583 -0.094018 0.931466
0.288797 -0.095423 0.945382
0.293730 -0.093770 0.929006
-0.268748 -0.089142 0.987831
-0.250758 -0.086579 0.959424
0.043634 -0.080693 0.894201
0.062352 -0.080167 0.888366
0.073873 -0.082420 0.913338
0.082879 -0.081669 0.905017
0.090981 -0.080278 0.889594
0.101074 -0.080739 0.894712
0.111249 -0.081182 0.899613
0.124814 -0.083830 0.928960
0.136798 -0.085105 0.943088
0.147324 -0.085360 0.945910
0.281396 -0.086142 0.954576
0.290725 -0.085882 0.951696
-0.295524 -0.074665 0.938649
-0.264578 -0.077358 0.972502
-0.251589 -0.076571 0.962601
0.071617 -0.070434 0.885451
0.081607 -0.070884 0.891119
0.094534 -0.073526 0.924328
0.107161 -0.075456 0.948593
0.110601 -0.071143 0.894375
0.124551 -0.073739 0.927010
0.135960 -0.074559 0.937309
0.144967 -0.074039 0.930773
0.266446 -0.074605 0.937889
0.280855 -0.075786 0.952742
-0.295089 -0.064531 0.937269
-0.260876 -0.066020 0.958897
-0.254123 -0.066943 0.972298
0.081337 -0.061151 0.888171
0.092549 -0.062304 0.904921
0.104643 -0.063777 0.926310
0.110457 -0.061498 0.893208
0.122965 -0.063012 0.915201
0.141635 -0.067228 0.976433
0.245007 -0.064213 0.932647
0.255036 -0.064227 0.932846
0.266222 -0.064520 0.937103
0.277386 -0.064786 0.940974
0.289266 -0.065196 0.946919
0.302785 -0.065934 0.957645
0.311938 -0.065705 0.954313
0.318664 -0.064995 0.944001
0.329507 -0.065143 0.946148
0.338688 -0.064962 0.943532
-0.308183 -0.056925 0.978856
-0.250896 -0.053631 0.922214
-0.250912 -0.055830 0.960012
0.075069 -0.053975 0.928122
0.094932 -0.053981 0.928221
0.099570 -0.051258 0.881404
0.109285 -0.051394 0.883734
0.121701 -0.052677 0.905794
0.133717 -0.053610 0.921844
0.145155 -0.054200 0.931984
0.221139 -0.053294 0.916409
0.231773 -0.053486 0.919713
0.245784 -0.054410 0.935606
0.255873 -0.054428 0.935908
0.265910 -0.054433 0.936003
0.277310 -0.054707 0.940715
-0.372307 -0.046620 0.982313
-0.361057 -0.046525 0.980293
-0.292899 -0.045705 0.963026
-0.255732 -0.046437 0.978451
-0.241950 -0.045809 0.965219
0.075454 -0.044274 0.932880
0.099743 -0.041904 0.882928
0.111136 -0.042652 0.898701
0.120483 -0.042559 0.896729
0.127745 -0.041797 0.880678
0.221438 -0.043551 0.917648
0.237041 -0.044642 0.940617
0.241462 -0.043623 0.919152
0.245155 -0.042557 0.896704
-0.371546 -0.036041 0.980305
-0.363892 -0.036323 0.987989
-0.353930 -0.036385 0.989680
-0.257730 -0.036254 0.986096
-0.243354 -0.035692 0.970821
0.118978 -0.032556 0.885529
0.127925 -0.032423 0.881915
0.216503 -0.032985 0.897199
0.232641 -0.033940 0.923161
-0.364198 -0.024363 0.934545
-0.353579 -0.024320 0.932900
-0.354902 -0.025120 0.963580
-0.356840 -0.026013 0.997817
-0.343918 -0.025844 0.991332
-0.262052 -0.026138 1.002632
-0.236028 -0.024547 0.941594
0.119788 -0.023242 0.891558
0.129611 -0.023294 0.893538
-0.370663 -0.014623 0.951135
-0.357907 -0.014518 0.944320
-0.360928 -0.015066 0.979943
-0.350153 -0.015053 0.979120
-0.297183 -0.014512 0.943918
-0.293065 -0.014814 0.963573
-0.258234 -0.015190 0.988024
-0.247976 -0.015209 0.989260
0.120663 -0.013807 0.898065
0.131019 -0.013887 0.903243
-0.372164 -0.004469 0.954987
-0.367112 -0.004532 0.968607
-0.367571 -0.004670 0.997980
-0.351914 -0.004604 0.984044
-0.304660 -0.004528 0.967669
-0.292186 -0.004495 0.960683
-0.297070 -0.004737 1.012339
-0.257047 -0.004602 0.983482
-0.253326 -0.004729 1.010601
-0.362424 0.005595 0.929994
-0.356654 0.005661 0.941013
-0.362445 0.005920 0.984061
-0.356587 0.005999 0.997110
-0.345579 0.005993 0.996119
-0.317837 0.006073 1.009520
-0.319216 0.006314 1.049554
-0.291261 0.005971 0.992543
-0.278682 0.005929 0.985600
-0.262845 0.006050 1.005669
-0.254557 0.006109 1.015512
-0.359403 0.015412 0.922241
-0.351867 0.015514 0.928382
-0.352992 0.016016 0.958395
-0.341516 0.015959 0.954968
-0.315067 0.016723 1.000724
-0.299924 0.016479 0.986123
-0.262354 0.016775 1.003791
-0.253277 0.016885 1.010405
-0.248742 0.017322 1.036542
-0.372839 0.026220 0.956718
-0.356575 0.025784 0.940804
-0.342936 0.025518 0.931094
-0.342985 0.026285 0.959076
-0.287199 0.025879 0.944284
-0.290731 0.027153 0.990739
-0.253959 0.027766 1.013125
-0.242730 0.027721 1.011486
-0.387558 0.035920 0.942742
-0.403216 0.038369 1.007030
-0.395225 0.038641 1.014162
-0.344855 0.035675 0.936302
-0.343700 0.036618 0.961075
-0.251315 0.038200 1.002580
-0.237957 0.037781 0.991597
-0.373056 0.044281 0.907467
-0.369385 0.045017 0.922538
-0.365396 0.045753 0.937619
-0.358975 0.046217 0.947137
-0.344296 0.045615 0.934786
-0.330873 0.045147 0.925209
-0.284852 0.047367 0.970704
-0.256912 0.050012 1.024907
-0.249006 0.050633 1.037639
-0.381982 0.055279 0.929179
-0.368733 0.054787 0.920908
-0.352554 0.055339 0.930196
-0.337938 0.054585 0.917524
-0.327593 0.054497 0.916036
-0.316706 0.054310 0.912896
-0.273552 0.053508 0.899415
-0.281288 0.057026 0.958556
-0.248476 0.058972 0.991253
-0.250989 0.062223 1.045905
-0.384440 0.065636 0.935157
-0.373022 0.065388 0.931621
-0.362088 0.065213 0.929132
-0.347585 0.064368 0.917085
-0.337958 0.064402 0.917576
-0.325042 0.063793 0.908904
-0.282851 0.065273 0.929991
-0.244503 0.068461 0.975405
-0.239885 0.070161 0.999632
-0.411096 0.080882 1.000000
-0.380011 0.076763 0.949076
-0.393647 0.081700 1.010113
-0.345524 0.073736 0.911647
-0.341829 0.075066 0.928088
-0.330917 0.074843 0.925330
-0.316320 0.073747 0.911783
-0.286243 0.076122 0.941141
-0.270779 0.074634 0.922745
-0.257102 0.073545 0.909279
-0.245784 0.073071 0.903423
-0.236956 0.076458 0.945298
-0.241327 0.081338 1.005639
-0.411096 0.091578 1.000000
-0.383398 0.087689 0.957536
-0.379528 0.089186 0.973883
-0.369730 0.089335 0.975512
-0.338291 0.084112 0.918482
-0.325433 0.083335 0.909997
-0.314293 0.082964 0.905940
-0.272768 0.085124 0.929525
-0.256627 0.083116 0.907599
-0.257325 0.094009 1.026556
-0.242368 0.092491 1.009978
-0.233584 0.093297 1.018779
-0.394955 0.100882 0.986398
-0.365209 0.095844 0.937140
-0.360453 0.097265 0.951036
-0.338569 0.094013 0.919237
-0.332916 0.095208 0.930920
-0.324682 0.095715 0.935885
-0.263949 0.091991 0.899470
-0.257973 0.093309 0.912359
-0.231358 0.098601 0.964100
-0.232783 0.103836 1.015287
-0.376015 0.103328 0.914665
-0.369893 0.104361 0.923807
-0.365091 0.105832 0.936837
-0.355238 0.105882 0.937276
-0.333553 0.102306 0.905617
-0.325203 0.102728 0.909354
-0.321037 0.104538 0.925378
-0.274095 0.105517 0.934047
-0.256179 0.102350 0.906012
-0.223539 0.105232 0.931518
-0.230333 0.113488 1.004600
-0.377489 0.113554 0.918249
-0.371396 0.114705 0.927561
-0.369703 0.117316 0.948672
-0.357882 0.116769 0.944253
-0.342061 0.114848 0.928718
-0.329488 0.113935 0.921335
-0.323437 0.115291 0.932295
-0.275791 0.116222 0.939826
-0.255588 0.111782 0.903924
-0.231208 0.119146 0.963474
-0.230406 0.124271 1.004918
-0.386605 0.126354 0.940425
-0.374660 0.125721 0.935711
-0.354389 0.125630 0.935037
-0.342172 0.124821 0.929019
-0.329306 0.123721 0.920826
-0.282132 0.129177 0.961434
-0.261119 0.124078 0.923485
-0.246125 0.121551 0.904676
-0.219861 0.123097 0.916188
-0.225266 0.132007 0.982500
-0.386890 0.136512 0.941118
-0.389502 0.141105 0.972780
-0.361213 0.134448 0.926886
-0.356287 0.136357 0.940045
-0.343246 0.135180 0.931934
-0.339459 0.137687 0.949217
-0.272845 0.134869 0.929785
-0.257019 0.131851 0.908984
-0.250002 0.133293 0.918926
-0.221113 0.133653 0.921405
-0.231472 0.146441 1.009568
-0.405596 0.153665 0.986621
-0.388759 0.151220 0.970924
-0.365471 0.146063 0.937811
-0.357509 0.146913 0.943270
-0.347283 0.146855 0.942894
-0.342067 0.148975 0.956508
-0.309064 0.138751 0.890866
-0.257923 0.142071 0.912181
-0.248980 0.142536 0.915169
-0.228408 0.148242 0.951805
-0.231833 0.157484 1.011143
-0.220747 0.157291 1.009901
-0.382755 0.154969 0.931060
-0.382848 0.159147 0.956161
-0.362819 0.154961 0.931008
-0.340833 0.154024 0.925383
-0.324587 0.151069 0.907630
-0.311370 0.149386 0.897515
-0.235342 0.163231 0.980699
-0.220217 0.159866 0.960481
-0.226054 0.172133 1.034178
-0.382436 0.164789 0.930282
-0.372075 0.164607 0.929255
-0.377353 0.171524 0.968303
-0.357269 0.166978 0.942637
-0.346649 0.166719 0.941173
-0.325179 0.161070 0.909286
-0.330058 0.168527 0.951380
-0.217293 0.167880 0.947728
-0.228809 0.185426 1.046783
-0.385345 0.176068 0.937361
-0.411631 0.198402 1.056260
-0.353177 0.175031 0.931838
-0.338141 0.172446 0.918073
-0.326717 0.171603 0.913587
-0.314852 0.170469 0.907549
-0.306605 0.171284 0.911890
-0.215434 0.176492 0.939618
-0.216412 0.185969 0.990068
-0.383716 0.185307 0.933397
-0.368824 0.182872 0.921135
-0.369177 0.188071 0.947322
-0.351176 0.183950 0.926561
-0.346358 0.186694 0.940384
-0.333338 0.185050 0.932102
-0.311495 0.183925 0.926435
-0.297369 0.181352 0.913478
-0.209682 0.181562 0.914533
-0.217085 0.197169 0.993147
-0.382234 0.194535 0.929791
-0.383544 0.200416 0.957901
-0.362718 0.206045 0.984804
-0.336003 0.196577 0.939552
-0.324586 0.195752 0.935609
-0.311657 0.193934 0.926918
-0.298977 0.192156 0.918419
-0.215026 0.196219 0.937838
-0.207580 0.198692 0.949660
-0.390241 0.208763 0.949270
-0.369292 0.202833 0.922305
-0.364420 0.205651 0.935116
-0.351622 0.209952 0.954677
-0.330066 0.202975 0.922952
-0.317697 0.201392 0.915751
-0.262519 0.212209 0.964936
-0.239223 0.201290 0.915288
-0.229652 0.201481 0.916157
-0.209770 0.201208 0.914915
-0.207058 0.208325 0.947277
-0.195488 0.206802 0.940354
-0.408525 0.229173 0.993746
-0.408718 0.235405 1.020772
-0.369347 0.218567 0.947758
-0.357291 0.223712 0.970068
-0.336690 0.217118 0.941473
-0.323826 0.215260 0.933418
-0.260613 0.220913 0.957930
-0.241417 0.213015 0.923682
-0.224352 0.225660 0.978513
-0.208242 0.219705 0.952693
-0.193613 0.214780 0.931335
-0.393187 0.230798 0.956436
-0.376237 0.226747 0.939650
-0.358023 0.221692 0.918699
-0.358613 0.234953 0.973657
-0.332504 0.224362 0.929767
-0.322401 0.224252 0.929311
-0.331607 0.237992 0.986251
-0.319519 0.236851 0.981521
-0.251873 0.214956 0.890785
-0.211764 0.222877 0.923614
-0.202856 0.223948 0.928049
-0.191650 0.222462 0.921893
-0.379804 0.232823 0.923880
-0.362346 0.228054 0.904957
-0.368692 0.238417 0.946077
-0.348889 0.238713 0.947255
-0.335189 0.236199 0.937277
-0.328592 0.246280 0.977282
-0.322103 0.249348 0.989457
-0.250017 0.222828 0.884221
-0.246088 0.227949 0.904538
-0.232887 0.224548 0.891044
-0.200472 0.231125 0.917143
-0.195430 0.236904 0.940075
-0.375314 0.239835 0.912958
-0.358035 0.234904 0.894190
-0.370327 0.249637 0.950273
-0.356600 0.247167 0.940870
-0.349441 0.249238 0.948753
-0.329259 0.241867 0.920696
-0.313077 0.244610 0.931138
-0.237906 0.229723 0.874467
-0.226475 0.227633 0.866512
-0.221434 0.242405 0.922743
-0.201739 0.242456 0.922938
-0.190221 0.240376 0.915020
-0.352719 0.240838 0.880915
-0.358631 0.251596 0.920262
-0.370821 0.267488 0.978392
-0.345129 0.256184 0.937046
-0.332568 0.254244 0.929947
-0.322911 0.254471 0.930779
-0.261940 0.263227 0.962806
-0.221498 0.252347 0.923011
-0.194296 0.243019 0.888891
-0.194124 0.255296 0.933795
-0.390923 0.270150 0.950929
-0.339141 0.247230 0.870249
-0.354572 0.265772 0.935519
-0.343851 0.265221 0.933577
-0.328282 0.260785 0.917962
-0.319463 0.261603 0.920841
-0.316285 0.267239 0.940680
-0.260294 0.271806 0.956757
-0.201668 0.262107 0.922615
-0.195857 0.267651 0.942131
-0.169411 0.244066 0.859114
-0.368608 0.264319 0.896648
-0.353469 0.260234 0.882788
-0.334406 0.260093 0.882312
-0.341793 0.273558 0.927989
-0.325734 0.268502 0.910838
-0.318771 0.270863 0.918847
-0.309905 0.271706 0.921707
-0.242113 0.273073 0.926344
-0.234323 0.275564 0.934794
-0.228704 0.280942 0.953038
-0.212847 0.287051 0.973759
-0.195684 0.277481 0.941295
-0.185021 0.276590 0.938274
-0.404968 0.300928 0.985093
-0.350783 0.267626 0.876079
-0.359389 0.281716 0.922205
-0.339612 0.273726 0.896048
-0.337641 0.280040 0.916716
-0.348967 0.298090 0.975803
-0.335778 0.295666 0.967870
-0.314869 0.286074 0.936471
-0.295746 0.277527 0.908492
-0.246954 0.300955 0.985183
-0.232839 0.296399 0.970270
-0.211703 0.295866 0.968525
-0.198334 0.291442 0.954043
-0.193062 0.299083 0.979055
0.412433 0.305481 1.000000
