3
-0.401913 -0.297350 0.977662
-0.411266 -0.312397 1.027135
-0.214616 -0.298625 0.981852
-0.152996 -0.301356 0.990833
-0.144571 -0.305953 1.005946
-0.134417 -0.307335 1.010489
-0.123100 -0.306068 1.006323
-0.111258 -0.303127 0.996654
-0.098535 -0.296911 0.976217
0.162640 -0.317601 1.044245
0.160825 -0.293878 0.966245
0.174180 -0.299065 0.983298
0.183680 -0.297418 0.977883
0.196026 -0.300309 0.987390
0.226856 -0.299187 0.983700
0.244849 -0.308604 1.014664
0.284091 -0.304144 1.000000
-0.406581 -0.290226 0.989016
-0.390625 -0.286285 0.975585
-0.223963 -0.300672 1.024614
-0.153304 -0.291344 0.992825
-0.144721 -0.295500 1.006987
-0.134554 -0.296830 1.011520
0.163553 -0.308153 1.050106
0.167321 -0.294996 1.005273
0.185110 -0.306653 1.044996
0.200320 -0.296095 1.009017
0.234607 -0.298528 1.017309
0.237521 -0.288841 0.984298
0.246200 -0.286689 0.976962
0.272417 -0.292398 0.996419
0.282459 -0.291763 0.994255
0.297904 -0.296553 1.010576
0.312444 -0.300138 1.022794
0.314848 -0.292217 0.995799
0.325999 -0.292666 0.997331
0.339459 -0.295094 1.005605
0.353145 -0.297564 1.014022
0.363996 -0.297569 1.014038
0.375297 -0.297931 1.015271
0.383233 -0.295675 1.007586
0.397529 -0.298317 1.016587
0.406567 -0.296977 1.012020
0.418720 -0.297923 1.015244
-0.383544 -0.270850 0.957900
-0.237258 -0.306911 1.085435
0.049870 -0.288974 1.021998
0.059781 -0.284125 1.004850
0.071658 -0.288678 1.020952
0.081922 -0.286388 1.012853
0.176281 -0.320030 1.131830
0.176372 -0.281530 0.995671
0.188647 -0.283977 1.004325
0.198870 -0.268761 0.950510
0.226239 -0.290878 1.028733
0.233631 -0.286452 1.013079
0.241411 -0.282872 1.000419
0.243772 -0.273516 0.967328
0.271383 -0.280672 0.992638
0.281279 -0.279955 0.990102
0.300600 -0.288330 1.019721
0.338733 -0.313532 1.108850
0.331907 -0.296821 1.049751
0.337364 -0.282584 0.999400
0.352857 -0.286485 1.013194
0.361247 -0.284558 1.006379
0.375108 -0.286927 1.014760
0.382802 -0.284578 1.006452
0.398036 -0.287811 1.017883
0.409113 -0.287945 1.018359
0.424657 -0.291134 1.029638
-0.371731 -0.252578 0.928396
-0.217032 -0.284025 1.043985
-0.037196 -0.275252 1.011737
-0.026352 -0.275009 1.010844
-0.015467 -0.273700 1.006031
-0.004710 -0.273842 1.006554
0.005999 -0.271284 0.997152
0.016859 -0.274472 1.008870
0.027628 -0.274256 1.008076
0.039059 -0.278892 1.025118
0.049434 -0.275611 1.013057
0.061125 -0.279525 1.027442
0.071684 -0.277862 1.021329
0.082460 -0.277365 1.019502
0.092103 -0.273619 1.005733
0.144737 -0.271465 0.997818
0.170653 -0.298093 1.095692
0.170343 -0.278431 1.023423
0.179813 -0.276166 1.015097
0.192081 -0.278210 1.022610
0.199393 -0.273242 1.004349
0.248775 -0.280475 1.030934
0.254348 -0.274588 1.009296
0.265673 -0.275137 1.011316
0.279335 -0.277969 1.021723
0.309642 -0.285769 1.050395
0.327768 -0.282033 1.036662
0.333448 -0.277533 1.020120
0.337667 -0.272140 1.000297
0.368983 -0.279657 1.027929
0.369537 -0.271974 0.999687
0.390700 -0.279464 1.027219
0.396552 -0.275891 1.014088
0.407348 -0.275858 1.013965
-0.376752 -0.245926 0.940935
-0.371853 -0.249390 0.954189
-0.365985 -0.252381 0.965633
-0.365520 -0.259380 0.992410
-0.356756 -0.260732 0.997584
-0.369410 -0.278303 1.064813
-0.342058 -0.265894 1.017335
-0.194721 -0.244809 0.936662
-0.188095 -0.263602 1.008565
-0.176149 -0.261879 1.001974
-0.166389 -0.263393 1.007765
-0.146260 -0.247565 0.947207
-0.142345 -0.258869 0.990454
-0.088609 -0.256638 0.981921
-0.078188 -0.256904 0.982935
-0.070168 -0.266365 1.019136
-0.058844 -0.264462 1.011854
-0.047482 -0.261483 1.000456
-0.037230 -0.264674 1.012666
-0.026422 -0.264897 1.013519
-0.015538 -0.264144 1.010638
-0.004765 -0.266176 1.018413
0.006117 -0.265765 1.016841
0.016837 -0.263332 1.007533
0.027873 -0.265812 1.017019
0.038610 -0.264853 1.013351
0.049132 -0.263158 1.006865
0.059812 -0.262768 1.005374
0.073065 -0.272079 1.040997
0.085874 -0.277495 1.061720
0.094577 -0.269924 1.032751
0.102987 -0.263189 1.006982
0.132385 -0.279798 1.070531
0.144454 -0.260284 0.995870
0.157202 -0.263802 1.009330
0.167015 -0.262260 1.003430
0.178562 -0.263464 1.008034
0.188710 -0.262583 1.004665
0.200425 -0.263859 1.009547
0.209275 -0.261427 1.000243
0.220354 -0.261880 1.001975
0.244564 -0.277172 1.060486
0.247397 -0.267956 1.025222
0.257898 -0.267475 1.023384
0.293065 -0.291573 1.115584
0.279768 -0.267456 1.023308
0.289246 -0.266106 1.018145
0.320644 -0.284289 1.087716
0.322446 -0.275879 1.055536
0.326641 -0.270014 1.033098
0.327870 -0.262162 1.003054
0.341256 -0.264220 1.010928
0.347530 -0.260815 0.997899
0.376161 -0.273890 1.047928
0.376052 -0.265889 1.017313
0.384308 -0.264085 1.010412
0.399280 -0.266869 1.021065
0.409951 -0.266707 1.020443
0.423085 -0.268114 1.025826
-0.363120 -0.247132 0.985894
-0.354568 -0.248529 0.991466
-0.356183 -0.257358 1.026686
-0.342019 -0.254984 1.017217
-0.206152 -0.248575 0.991650
-0.200225 -0.254523 1.015376
-0.188690 -0.253615 1.011756
-0.176169 -0.251191 1.002085
-0.169177 -0.256848 1.024651
-0.151917 -0.246619 0.983845
-0.142775 -0.249027 0.993451
-0.134817 -0.254053 1.013501
-0.025924 -0.249267 0.994410
-0.015410 -0.251257 1.002348
-0.004701 -0.251859 1.004748
0.006057 -0.252373 1.006801
0.016805 -0.252076 1.005616
0.027514 -0.251653 1.003929
0.038392 -0.252582 1.007634
0.048916 -0.251279 1.002434
0.059563 -0.250967 1.001190
0.068997 -0.246419 0.983048
0.079999 -0.247931 0.989079
0.092582 -0.253418 1.010969
0.102063 -0.250155 0.997952
0.112734 -0.250150 0.997932
0.136138 -0.253990 1.013249
0.149500 -0.258352 1.030653
0.158049 -0.254371 1.014771
0.163462 -0.246178 0.982088
0.182320 -0.258000 1.029248
0.190301 -0.253960 1.013131
0.200628 -0.253318 1.010570
0.215129 -0.257743 1.028222
0.222223 -0.253293 1.010471
0.233962 -0.254306 1.014513
0.246625 -0.256189 1.022025
0.254514 -0.253164 1.009956
0.277637 -0.264920 1.056856
0.278575 -0.255417 1.018944
0.290778 -0.256569 1.023540
0.307317 -0.261324 1.042509
0.320848 -0.263278 1.050303
0.324788 -0.257496 1.027237
0.325279 -0.249447 0.995127
0.347198 -0.257820 1.028530
0.350991 -0.252633 1.007836
0.365151 -0.254994 1.017254
0.373374 -0.253192 1.010068
0.384089 -0.253134 1.009837
0.395491 -0.253520 1.011376
0.401162 -0.250309 0.998567
0.415289 -0.252404 1.006925
-0.345119 -0.246318 1.026438
-0.191213 -0.220725 0.919790
-0.188763 -0.229715 0.957253
-0.182369 -0.234661 0.977862
-0.175723 -0.239865 0.999550
-0.165080 -0.239933 0.999834
-0.152194 -0.236527 0.985639
-0.141111 -0.235622 0.981869
-0.133222 -0.240335 1.001509
-0.122419 -0.240156 1.000760
-0.112314 -0.241441 1.006117
0.026934 -0.235839 0.982773
0.037990 -0.239273 0.997083
0.049419 -0.243031 1.012743
0.060329 -0.243351 1.014074
0.092542 -0.242501 1.010533
0.102557 -0.240639 1.002776
0.113657 -0.241437 1.006101
0.124164 -0.240946 1.004052
0.135545 -0.242093 1.008832
0.145926 -0.241417 1.006015
0.154992 -0.238807 0.995140
0.167169 -0.241019 1.004357
0.179180 -0.242738 1.011522
0.190805 -0.243768 1.015814
0.199284 -0.240886 1.003802
0.212771 -0.244041 1.016952
0.222331 -0.242605 1.010965
0.231863 -0.241272 1.005414
0.251342 -0.249950 1.041574
0.257817 -0.245507 1.023061
0.270790 -0.247363 1.030793
0.278212 -0.244201 1.017618
0.286549 -0.242049 1.008651
0.296313 -0.241217 1.005181
0.309678 -0.243270 1.013739
0.312298 -0.237030 0.987733
0.335540 -0.246337 1.026519
0.341082 -0.242472 1.010412
0.349223 -0.240635 1.002759
0.364909 -0.243953 1.016582
0.373394 -0.242402 1.010123
0.383186 -0.241764 1.007461
0.399801 -0.245348 1.022397
0.408675 -0.244117 1.017269
0.421990 -0.245534 1.023171
-0.196339 -0.228285 0.995670
-0.184490 -0.226810 0.989234
-0.174038 -0.226977 0.989965
-0.165579 -0.229933 1.002857
-0.154914 -0.230024 1.003255
-0.145768 -0.232551 1.014275
-0.133846 -0.230699 1.006199
-0.122632 -0.229851 1.002498
-0.111307 -0.228612 0.997097
-0.100241 -0.227701 0.993120
-0.090359 -0.229580 1.001315
-0.076306 -0.219941 0.959278
-0.049299 -0.238163 1.038750
-0.039047 -0.243509 1.062067
0.027210 -0.227635 0.992834
0.038003 -0.228683 0.997404
0.146912 -0.232215 1.012810
0.156258 -0.230028 1.003270
0.177588 -0.229859 1.002534
0.189277 -0.231039 1.007680
0.198870 -0.229671 1.001716
0.210845 -0.231054 1.007744
0.223039 -0.232530 1.014184
0.232447 -0.231099 1.007944
0.239979 -0.228013 0.994483
0.254744 -0.231770 1.010867
0.270572 -0.236148 1.029964
0.277691 -0.232880 1.015710
0.285105 -0.230096 1.003569
0.296551 -0.230650 1.005986
0.302006 -0.226670 0.988624
0.321899 -0.233427 1.018098
0.329969 -0.231451 1.009477
0.339059 -0.230292 1.004421
0.351624 -0.231492 1.009654
0.358535 -0.229008 0.998823
0.406974 -0.232267 1.013034
0.420966 -0.234021 1.020688
-0.208881 -0.219627 1.004776
-0.197835 -0.219296 1.003260
-0.181644 -0.212895 0.973977
-0.175576 -0.218302 0.998716
-0.155931 -0.220733 1.009837
-0.143383 -0.218076 0.997682
-0.131600 -0.216247 0.989312
-0.121084 -0.216363 0.989844
-0.110652 -0.216666 0.991231
-0.100610 -0.217877 0.996773
-0.090354 -0.218858 1.001259
-0.077604 -0.213247 0.975590
-0.069211 -0.219727 1.005233
-0.059166 -0.222383 1.017384
-0.048252 -0.222233 1.016699
-0.036996 -0.219957 1.006286
-0.025937 -0.217474 0.994926
-0.015275 -0.217170 0.993538
-0.004659 -0.217644 0.995704
0.005965 -0.216720 0.991479
0.027176 -0.216743 0.991584
0.037847 -0.217125 0.993330
0.047124 -0.211091 0.965725
0.058143 -0.213625 0.977319
0.273023 -0.218285 0.998635
0.286962 -0.220792 1.010107
0.293575 -0.217685 0.995891
0.307430 -0.219977 1.006380
0.321329 -0.222145 1.016296
-0.206899 -0.206899 0.995244
-0.198997 -0.209790 1.009149
-0.182355 -0.203270 0.977788
-0.175153 -0.207120 0.996308
-0.165297 -0.208126 1.001148
-0.154979 -0.208652 1.003677
-0.145368 -0.210277 1.011493
-0.133033 -0.207906 1.000090
-0.123134 -0.209261 1.006604
-0.112721 -0.209918 1.009766
-0.102189 -0.210469 1.012415
-0.090425 -0.208313 1.002043
-0.080132 -0.209421 1.007375
-0.069510 -0.209880 1.009582
-0.058945 -0.210710 1.013578
-0.048196 -0.211112 1.015510
-0.037067 -0.209596 1.008218
-0.025936 -0.206822 0.994873
-0.015095 -0.204111 0.981832
-0.004628 -0.205609 0.989037
0.005937 -0.205164 0.986899
0.016467 -0.204846 0.985370
0.027186 -0.206218 0.991970
0.037396 -0.204038 0.981481
0.048127 -0.205032 0.986265
0.297732 -0.209966 1.009995
0.293862 -0.199980 0.961963
0.339556 -0.209112 1.005892
0.344135 -0.205424 0.988150
0.354545 -0.205333 0.987709
0.361448 -0.203274 0.977805
-0.207279 -0.196615 0.997072
-0.162296 -0.193835 0.982973
-0.155580 -0.198684 1.007564
-0.145786 -0.200033 1.014402
-0.134513 -0.199403 1.011211
-0.123409 -0.198938 1.008851
-0.111319 -0.196642 0.997206
-0.101426 -0.198150 1.004857
-0.090364 -0.197462 1.001365
-0.079934 -0.198155 1.004879
-0.069533 -0.199147 1.009909
-0.059070 -0.200296 1.015739
-0.048101 -0.199857 1.013510
-0.037296 -0.200040 1.014439
0.016254 -0.191799 0.972646
0.026851 -0.193197 0.979738
0.037175 -0.192396 0.975676
0.048574 -0.196291 0.995429
0.059865 -0.198430 1.006276
0.069344 -0.194823 0.987983
0.080406 -0.196030 0.994105
0.265396 -0.199216 1.010261
0.269386 -0.194301 0.985335
0.274775 -0.190726 0.967208
0.293266 -0.196176 0.994845
0.304692 -0.196683 0.997416
0.316966 -0.197685 1.002496
0.329741 -0.198923 1.008777
0.347426 -0.202952 1.029208
0.361398 -0.204630 1.037719
-0.111262 -0.185881 0.996696
-0.101707 -0.187922 1.007639
-0.090988 -0.188041 1.008278
-0.078215 -0.183379 0.983278
-0.067537 -0.182940 0.980924
-0.057192 -0.183410 0.983447
-0.047147 -0.185268 0.993407
-0.037477 -0.190108 1.019361
0.048168 -0.184095 0.987117
0.058665 -0.183906 0.986108
0.069105 -0.183622 0.984584
0.079264 -0.182765 0.979989
0.089935 -0.183152 0.982064
0.101324 -0.184767 0.990724
0.111924 -0.184774 0.990759
0.120056 -0.181057 0.970830
0.214618 -0.191305 1.025779
0.221781 -0.188076 1.008465
0.227910 -0.184310 0.988273
0.246261 -0.190324 1.020518
0.253279 -0.187440 1.005054
0.264414 -0.187713 1.006521
0.269869 -0.184092 0.987100
0.271273 -0.178083 0.954881
0.286053 -0.180972 0.970376
0.326431 -0.186246 0.998653
0.345237 -0.190735 1.022721
0.359422 -0.192474 1.032045
-0.118886 -0.170858 0.971879
-0.112285 -0.176831 1.005855
-0.101941 -0.177553 1.009957
-0.089240 -0.173852 0.988906
-0.079276 -0.175207 0.996615
-0.069134 -0.176527 1.004125
-0.057487 -0.173784 0.988520
-0.047710 -0.176730 1.005276
-0.036772 -0.175836 1.000190
-0.025941 -0.174938 0.995085
-0.015349 -0.175517 0.998377
-0.004717 -0.177229 1.008114
0.089329 -0.171486 0.975451
0.098853 -0.169924 0.966563
0.107858 -0.167850 0.954768
0.118206 -0.168044 0.955872
0.133387 -0.174531 0.992772
0.146066 -0.177029 1.006978
0.157146 -0.177379 1.008970
0.169060 -0.178565 1.015716
0.181250 -0.179882 1.023208
0.188482 -0.176408 1.003449
0.200585 -0.177622 1.010352
0.211853 -0.178011 1.012564
0.228388 -0.182572 1.038506
0.235258 -0.171393 0.974919
0.240559 -0.167817 0.954581
0.267378 -0.178932 1.017804
0.278636 -0.179172 1.019168
0.282892 -0.175060 0.995781
0.299627 -0.178689 1.016420
0.307494 -0.176960 1.006588
0.315235 -0.175279 0.997024
-0.279072 -0.162957 0.986979
-0.258990 -0.157176 0.951963
-0.120710 -0.162926 0.986791
-0.112895 -0.166976 1.011322
-0.102212 -0.167195 1.012648
-0.088936 -0.162720 0.985545
-0.079091 -0.164164 0.994291
-0.069147 -0.165818 1.004307
-0.058049 -0.164805 0.998171
-0.047988 -0.166945 1.011132
-0.014923 -0.160256 0.970618
-0.004566 -0.161104 0.975757
0.006122 -0.168005 1.017555
0.016849 -0.166471 1.008262
0.025545 -0.153893 0.932082
0.037961 -0.164498 0.996309
0.092935 -0.150033 0.908702
0.108696 -0.158864 0.962188
0.116111 -0.155024 0.938933
0.123653 -0.151952 0.920324
0.141267 -0.160797 0.973893
0.153122 -0.162323 0.983137
0.167265 -0.165922 1.004936
0.180297 -0.168050 1.017828
0.190876 -0.167780 1.016193
0.275329 -0.166274 1.007070
0.283616 -0.164831 0.998327
0.290142 -0.162506 0.984248
0.304043 -0.164330 0.995291
0.315210 -0.164602 0.996944
-0.319321 -0.151464 0.980913
-0.271353 -0.148186 0.959678
-0.254321 -0.144345 0.934803
-0.129198 -0.163086 1.056176
-0.110452 -0.152781 0.989437
-0.098058 -0.150009 0.971487
-0.086188 -0.147478 0.955094
-0.077560 -0.150557 0.975037
-0.069099 -0.154969 1.003607
-0.055645 -0.147747 0.956840
-0.046233 -0.150420 0.974150
-0.036435 -0.153029 0.991043
-0.025930 -0.153584 0.994639
0.005821 -0.149417 0.967655
0.016424 -0.151761 0.982835
0.027017 -0.152217 0.985784
0.037964 -0.153855 0.996392
0.049257 -0.155868 1.009431
0.058721 -0.152411 0.987046
0.083603 -0.159606 1.033641
0.090307 -0.152269 0.986121
0.278766 -0.151517 0.981255
0.279869 -0.146598 0.949398
0.299369 -0.151322 0.979990
0.313516 -0.153113 0.991586
0.296567 -0.140096 0.907290
-0.319092 -0.140872 0.980208
-0.271341 -0.137916 0.959635
-0.265031 -0.140004 0.974167
-0.033480 -0.130875 0.910648
-0.024110 -0.132912 0.924823
-0.015182 -0.141918 0.987486
-0.004674 -0.143549 0.998832
0.025927 -0.135958 0.946017
0.036207 -0.136570 0.950272
0.047487 -0.139859 0.973155
0.060475 -0.146091 1.016520
0.067484 -0.138181 0.961484
0.079014 -0.140396 0.976895
0.086946 -0.136449 0.949429
0.100363 -0.127680 0.888417
0.117709 -0.136797 0.951851
0.284371 -0.143858 1.000984
0.292703 -0.142701 0.992933
0.297672 -0.140043 0.974438
0.316714 -0.143961 1.001699
-0.261487 -0.127853 0.961143
-0.025001 -0.127569 0.959015
-0.014480 -0.125285 0.941839
-0.004458 -0.126739 0.952771
0.005664 -0.125232 0.941439
0.016418 -0.130684 0.982430
0.045234 -0.123310 0.926997
0.056968 -0.127377 0.957566
0.070302 -0.133240 1.001640
0.076731 -0.126194 0.948674
0.087616 -0.127267 0.956744
0.100632 -0.130887 0.983953
0.109232 -0.128622 0.966930
0.118920 -0.127919 0.961645
0.141029 -0.129331 0.972255
0.153452 -0.131060 0.985257
0.278695 -0.130495 0.981006
0.277053 -0.125019 0.939843
0.298684 -0.130061 0.977748
0.329783 -0.138746 1.043033
-0.300704 -0.112996 0.923723
-0.260481 -0.117121 0.957445
-0.260084 -0.121727 0.995102
-0.004477 -0.117054 0.956903
0.005624 -0.114349 0.934789
0.015870 -0.116171 0.949683
0.025216 -0.112547 0.920060
0.035167 -0.112905 0.922982
0.071726 -0.125008 1.021924
0.079278 -0.119899 0.980159
0.091022 -0.121583 0.993928
0.104405 -0.113054 0.924201
0.114578 -0.113339 0.926531
0.128931 -0.117385 0.959605
0.140656 -0.118618 0.969685
0.156700 -0.123074 1.006110
0.169846 -0.124827 1.020443
0.276401 -0.119015 0.972930
0.274929 -0.114086 0.932638
0.279320 -0.111850 0.914359
0.288798 -0.111734 0.913407
-0.304392 -0.104381 0.935053
-0.304761 -0.108058 0.967989
-0.261206 -0.107178 0.960110
-0.252120 -0.107683 0.964633
0.005805 -0.107715 0.964921
0.015927 -0.106393 0.953077
0.025173 -0.102534 0.918509
0.034468 -0.100984 0.904625
0.044704 -0.102268 0.916127
0.058566 -0.109893 0.984431
0.065915 -0.104836 0.939126
0.073346 -0.101229 0.906820
0.085936 -0.104754 0.938394
0.101607 -0.110905 0.993495
0.112909 -0.111573 0.999479
0.141595 -0.108969 0.976157
0.150666 -0.107988 0.967365
0.160660 -0.107752 0.965252
0.174798 -0.110156 0.986784
0.180066 -0.107014 0.958644
0.189762 -0.106701 0.955839
0.263480 -0.103532 0.927448
0.272083 -0.103034 0.922985
0.279294 -0.102061 0.914275
0.296468 -0.104673 0.937666
-0.271552 -0.100748 0.998137
-0.247750 -0.095678 0.947911
0.043467 -0.089912 0.890780
0.054301 -0.092128 0.912740
0.065519 -0.094222 0.933486
0.072710 -0.090737 0.898962
0.082994 -0.091475 0.906265
0.096069 -0.094813 0.939344
0.105792 -0.094525 0.936482
0.119298 -0.097373 0.964698
0.127803 -0.096011 0.951211
0.162060 -0.098277 0.973659
0.172208 -0.098126 0.972165
0.181510 -0.097537 0.966330
0.190975 -0.097095 0.961946
0.275389 -0.094294 0.934201
0.288512 -0.095329 0.944449
0.290448 -0.092722 0.918627
-0.269464 -0.089380 0.990461
-0.250788 -0.086589 0.959536
0.043355 -0.080178 0.888489
0.062429 -0.080265 0.889459
0.073873 -0.082420 0.913338
0.082879 -0.081669 0.905017
0.090981 -0.080278 0.889594
0.101110 -0.080768 0.895035
0.111249 -0.081182 0.899613
0.124239 -0.083444 0.924685
0.135408 -0.084240 0.933505
0.146946 -0.085140 0.943482
0.281597 -0.086203 0.955257
0.290786 -0.085900 0.951894
-0.295167 -0.074575 0.937515
-0.264473 -0.077327 0.972116
-0.251116 -0.076426 0.960790
0.071617 -0.070434 0.885451
0.081607 -0.070884 0.891119
0.094534 -0.073526 0.924328
0.106811 -0.075210 0.945497
0.110601 -0.071143 0.894375
0.124667 -0.073808 0.927867
0.136097 -0.074634 0.938253
0.145027 -0.074070 0.931162
0.264981 -0.074195 0.932733
0.280475 -0.075684 0.951453
-0.294558 -0.064415 0.935583
-0.262445 -0.066417 0.964663
-0.254280 -0.066984 0.972898
0.081183 -0.061035 0.886490
0.092404 -0.062207 0.903510
0.104694 -0.063808 0.926760
0.110796 -0.061687 0.895953
0.122965 -0.063012 0.915201
0.141635 -0.067228 0.976433
0.239600 -0.062796 0.912065
0.249129 -0.062739 0.911239
0.261343 -0.063337 0.919927
0.271457 -0.063401 0.920860
0.281936 -0.063543 0.922923
0.296323 -0.064527 0.937209
0.303767 -0.063984 0.929315
0.308839 -0.062991 0.914896
0.320557 -0.063373 0.920448
0.332322 -0.063741 0.925797
-0.312457 -0.057715 0.992431
-0.251190 -0.053694 0.923294
-0.250937 -0.055835 0.960107
0.075766 -0.054476 0.936739
0.094468 -0.053717 0.923689
0.098223 -0.050565 0.869479
0.108769 -0.051151 0.879557
0.121206 -0.052462 0.902107
0.133725 -0.053613 0.921901
0.146130 -0.054563 0.938240
0.216083 -0.052075 0.895458
0.224834 -0.051885 0.892180
0.240292 -0.053195 0.914701
0.249945 -0.053167 0.914224
0.259807 -0.053184 0.914521
0.269027 -0.053073 0.912619
-0.367322 -0.045996 0.969161
-0.359531 -0.046328 0.976148
-0.291381 -0.045468 0.958037
-0.257074 -0.046681 0.983587
-0.242394 -0.045893 0.966991
0.075940 -0.044560 0.938896
0.097690 -0.041041 0.864756
0.109994 -0.042214 0.889463
0.120114 -0.042428 0.893985
0.127175 -0.041610 0.876745
0.219272 -0.043125 0.908672
0.232387 -0.043765 0.922153
0.234964 -0.042449 0.894417
0.238534 -0.041408 0.872486
-0.368122 -0.035708 0.971271
-0.362918 -0.036226 0.985346
-0.352918 -0.036281 0.986850
-0.258857 -0.036412 0.990410
-0.243533 -0.035718 0.971533
0.118809 -0.032510 0.884272
0.127260 -0.032255 0.877331
0.215224 -0.032790 0.891898
0.230299 -0.033598 0.913864
-0.368357 -0.024641 0.945219
-0.354507 -0.024384 0.935347
-0.355450 -0.025159 0.965070
-0.350142 -0.025524 0.979088
-0.339637 -0.025522 0.978993
-0.262751 -0.026208 1.005309
-0.237430 -0.024693 0.947186
0.119826 -0.023250 0.891837
0.129612 -0.023294 0.893545
-0.375233 -0.014803 0.962863
-0.358920 -0.014559 0.946990
-0.361216 -0.015078 0.980724
-0.350463 -0.015067 0.979986
-0.298086 -0.014556 0.946786
-0.293065 -0.014814 0.963573
-0.257895 -0.015170 0.986728
-0.247526 -0.015182 0.987463
0.120473 -0.013786 0.896657
0.130941 -0.013879 0.902707
-0.374053 -0.004491 0.959833
-0.366009 -0.004519 0.965695
-0.368293 -0.004679 0.999940
-0.351127 -0.004594 0.981843
-0.307043 -0.004563 0.975238
-0.290896 -0.004475 0.956440
-0.290665 -0.004635 0.990513
-0.258233 -0.004623 0.988023
-0.252953 -0.004722 1.009115
-0.362594 0.005598 0.930430
-0.357478 0.005674 0.943186
-0.362494 0.005921 0.984194
-0.356147 0.005991 0.995879
-0.342214 0.005934 0.986419
-0.317371 0.006064 1.008041
-0.318789 0.006306 1.048150
-0.283461 0.005811 0.965962
-0.272080 0.005789 0.962250
-0.266944 0.006144 1.021350
-0.254955 0.006119 1.017099
-0.360844 0.015474 0.925940
-0.353691 0.015595 0.933195
-0.351517 0.015949 0.954391
-0.341751 0.015970 0.955625
-0.316720 0.016811 1.005973
-0.300550 0.016514 0.988183
-0.264902 0.016937 1.013540
-0.254041 0.016936 1.013455
-0.247164 0.017212 1.029963
-0.373422 0.026261 0.958214
-0.356593 0.025785 0.940851
-0.342982 0.025521 0.931219
-0.342355 0.026237 0.957315
-0.285987 0.025770 0.940299
-0.287328 0.026835 0.979142
-0.254420 0.027817 1.014965
-0.241967 0.027634 1.008309
-0.388165 0.035976 0.944219
-0.403216 0.038369 1.007030
-0.397956 0.038908 1.021170
-0.345092 0.035699 0.936947
-0.345470 0.036807 0.966026
-0.251773 0.038270 1.004408
-0.236031 0.037476 0.983571
-0.373074 0.044284 0.907510
-0.369337 0.045011 0.922418
-0.367473 0.046013 0.942949
-0.360299 0.046388 0.950630
-0.345475 0.045771 0.937987
-0.331129 0.045182 0.925923
-0.287228 0.047762 0.978799
-0.258214 0.050266 1.030103
-0.247586 0.050345 1.031723
-0.382093 0.055295 0.929449
-0.368596 0.054766 0.920568
-0.353248 0.055448 0.932027
-0.338035 0.054601 0.917787
-0.327677 0.054511 0.916270
-0.316712 0.054311 0.912913
-0.275979 0.053983 0.907396
-0.284243 0.057626 0.968628
-0.249066 0.059112 0.993609
-0.249466 0.061845 1.039558
-0.384513 0.065649 0.935337
-0.373182 0.065416 0.932021
-0.362005 0.065198 0.928919
-0.347526 0.064357 0.916929
-0.337412 0.064298 0.916094
-0.325436 0.063871 0.910004
-0.283046 0.065318 0.930631
-0.246558 0.069036 0.983602
-0.238909 0.069876 0.995565
-0.411096 0.080882 1.000000
-0.377942 0.076345 0.943907
-0.391261 0.081205 1.003991
-0.347521 0.074162 0.916915
-0.341802 0.075060 0.928014
-0.331301 0.074930 0.926404
-0.316469 0.073782 0.912211
-0.287279 0.076397 0.944546
-0.270933 0.074676 0.923270
-0.257315 0.073606 0.910033
-0.246633 0.073323 0.906544
-0.240399 0.077569 0.959033
-0.242140 0.081613 1.009028
-0.411096 0.091578 1.000000
-0.378378 0.086540 0.944996
-0.377668 0.088749 0.969111
-0.371135 0.089675 0.979219
-0.338563 0.084180 0.919221
-0.325433 0.083335 0.909997
-0.314293 0.082964 0.905940
-0.273197 0.085257 0.930985
-0.256686 0.083135 0.907805
-0.257753 0.094166 1.028263
-0.242202 0.092428 1.009286
-0.229604 0.091708 1.001420
-0.390848 0.099833 0.976141
-0.366002 0.096052 0.939175
-0.360340 0.097235 0.950737
-0.338579 0.094015 0.919262
-0.333167 0.095280 0.931623
-0.325594 0.095984 0.938514
-0.264154 0.092063 0.900169
-0.257980 0.093312 0.912382
-0.231008 0.098452 0.962641
-0.228478 0.101916 0.996512
-0.376015 0.103328 0.914665
-0.369524 0.104256 0.922885
-0.365154 0.105851 0.936999
-0.355132 0.105851 0.936996
-0.334175 0.102497 0.907307
-0.325203 0.102728 0.909354
-0.321102 0.104559 0.925566
-0.273323 0.105220 0.931414
-0.256179 0.102350 0.906012
-0.225214 0.106020 0.938495
-0.231325 0.113976 1.008927
-0.377518 0.113562 0.918321
-0.371889 0.114857 0.928792
-0.371834 0.117992 0.954141
-0.358420 0.116945 0.945672
-0.342785 0.115091 0.930683
-0.329678 0.114001 0.921866
-0.324690 0.115737 0.935908
-0.274893 0.115843 0.936766
-0.255588 0.111782 0.903924
-0.232086 0.119599 0.967133
-0.228543 0.123266 0.996793
-0.387106 0.126517 0.941642
-0.374415 0.125638 0.935100
-0.356286 0.126302 0.940041
-0.342785 0.125045 0.930684
-0.330000 0.123981 0.922768
-0.283438 0.129774 0.965883
-0.261218 0.124125 0.923836
-0.246126 0.121551 0.904681
-0.219540 0.122918 0.914854
-0.224742 0.131700 0.980214
-0.388734 0.137163 0.945604
-0.391838 0.141951 0.978613
-0.364314 0.135602 0.934845
-0.357735 0.136911 0.943865
-0.343486 0.135275 0.932587
-0.339763 0.137810 0.950066
-0.272506 0.134701 0.928631
-0.256948 0.131815 0.908734
-0.249993 0.133289 0.918893
-0.221397 0.133825 0.922589
-0.231124 0.146221 1.008051
-0.405918 0.153787 0.987405
-0.390633 0.151949 0.975604
-0.365832 0.146207 0.938738
-0.355943 0.146269 0.939137
-0.350034 0.148018 0.950364
-0.341992 0.148942 0.956298
-0.309064 0.138751 0.890866
-0.257901 0.142059 0.912103
-0.249019 0.142559 0.915314
-0.228438 0.148262 0.951931
-0.230727 0.156733 1.006320
-0.220572 0.157166 1.009102
-0.383934 0.155446 0.933926
-0.384514 0.159840 0.960322
-0.361833 0.154539 0.928478
-0.341779 0.154452 0.927951
-0.325027 0.151274 0.908860
-0.311517 0.149456 0.897939
-0.240145 0.166563 1.000716
-0.219691 0.159484 0.958184
-0.222167 0.169173 1.016396
-0.383657 0.165315 0.933252
-0.374193 0.165545 0.934547
-0.377449 0.171568 0.968548
-0.358915 0.167747 0.946979
-0.348460 0.167590 0.946091
-0.324905 0.160934 0.908521
-0.329797 0.168394 0.950630
-0.216823 0.167516 0.945677
-0.226677 0.183699 1.037032
-0.386074 0.176401 0.939134
-0.417724 0.201339 1.071896
-0.353337 0.175111 0.932261
-0.338371 0.172563 0.918699
-0.326717 0.171603 0.913587
-0.314852 0.170469 0.907549
-0.306605 0.171284 0.911890
-0.214633 0.175837 0.936127
-0.213883 0.183795 0.978498
-0.384116 0.185500 0.934369
-0.368736 0.182829 0.920917
-0.368717 0.187837 0.946141
-0.350920 0.183815 0.925884
-0.345599 0.186285 0.938323
-0.333402 0.185085 0.932280
-0.311495 0.183925 0.926435
-0.299891 0.182890 0.921226
-0.210818 0.182545 0.919485
-0.217275 0.197342 0.994017
-0.381562 0.194193 0.928157
-0.383086 0.200177 0.956756
-0.363826 0.206674 0.987811
-0.337305 0.197339 0.943192
-0.324495 0.195697 0.935346
-0.312278 0.194320 0.928762
-0.301719 0.193918 0.926841
-0.214680 0.195904 0.936332
-0.205364 0.196571 0.939523
-0.392722 0.210091 0.955305
-0.369556 0.202978 0.922963
-0.365833 0.206448 0.938742
-0.352949 0.210745 0.958280
-0.330812 0.203434 0.925036
-0.317733 0.201415 0.915856
-0.264011 0.213414 0.970419
-0.239263 0.201324 0.915442
-0.229668 0.201495 0.916222
-0.209327 0.200783 0.912981
-0.205761 0.207019 0.941341
-0.194990 0.206275 0.937956
-0.411109 0.230622 1.000030
-0.405234 0.233399 1.012070
-0.368446 0.218034 0.945447
-0.359008 0.224787 0.974728
-0.336885 0.217244 0.942018
-0.324253 0.215544 0.934647
-0.261002 0.221243 0.959359
-0.241690 0.213256 0.924726
-0.223624 0.224928 0.975339
-0.206623 0.217996 0.945283
-0.191768 0.212733 0.922458
-0.392833 0.230589 0.955573
-0.379517 0.228724 0.947841
-0.359507 0.222611 0.922508
-0.361583 0.236899 0.981720
-0.333094 0.224761 0.931419
-0.323276 0.224860 0.931831
-0.333746 0.239528 0.992613
-0.320482 0.237565 0.984480
-0.254097 0.216853 0.898649
-0.212497 0.223648 0.926809
-0.202030 0.223036 0.924273
-0.187880 0.218086 0.903757
-0.379788 0.232813 0.923842
-0.361812 0.227718 0.903623
-0.369247 0.238775 0.947501
-0.349946 0.239437 0.950125
-0.335907 0.236704 0.939283
-0.330634 0.247811 0.983358
-0.323567 0.250482 0.993957
-0.252410 0.224961 0.892683
-0.244092 0.226100 0.897203
-0.234882 0.226472 0.898680
-0.199609 0.230130 0.913196
-0.191515 0.232158 0.921244
-0.375239 0.239787 0.912776
-0.357587 0.234610 0.893071
-0.370758 0.249928 0.951380
-0.358850 0.248727 0.946807
-0.350756 0.250176 0.952324
-0.329090 0.241743 0.920223
-0.313301 0.244786 0.931806
-0.238571 0.230364 0.876909
-0.229387 0.230561 0.877656
-0.223988 0.245201 0.933388
-0.201297 0.241926 0.920919
-0.188121 0.237722 0.904917
-0.353895 0.241641 0.883851
-0.358064 0.251198 0.918806
-0.372442 0.268658 0.982670
-0.346578 0.257260 0.940981
-0.332454 0.254156 0.929628
-0.322812 0.254393 0.930494
-0.263645 0.264940 0.969073
-0.223317 0.254419 0.930589
-0.194120 0.242798 0.888084
-0.192650 0.253356 0.926702
-0.391593 0.270613 0.952557
-0.338768 0.246958 0.869290
-0.354584 0.265782 0.935552
-0.342393 0.264096 0.929619
-0.328871 0.261253 0.919610
-0.320199 0.262205 0.922963
-0.321272 0.271452 0.955512
-0.261937 0.273522 0.962796
-0.201811 0.262293 0.923270
-0.195329 0.266929 0.939589
-0.168055 0.242113 0.852238
-0.368810 0.264464 0.897139
-0.354082 0.260685 0.884319
-0.333577 0.259449 0.880125
-0.341743 0.273518 0.927853
-0.325247 0.268101 0.909475
-0.318773 0.270865 0.918853
-0.310221 0.271983 0.922645
-0.240979 0.271795 0.922007
-0.233599 0.274712 0.931903
-0.229474 0.281889 0.956249
-0.212094 0.286035 0.970315
-0.194393 0.275651 0.935089
-0.183592 0.274455 0.931030
-0.408512 0.303561 0.993714
-0.348783 0.266100 0.871083
-0.359194 0.281564 0.921705
-0.338875 0.273132 0.894105
-0.338269 0.280560 0.918421
-0.350186 0.299131 0.979211
-0.336699 0.296476 0.970522
-0.316047 0.287144 0.939974
-0.292624 0.274598 0.898902
-0.248872 0.303292 0.992833
-0.233914 0.297768 0.974752
-0.212065 0.296373 0.970182
-0.197980 0.290923 0.952342
-0.191220 0.296229 0.969713
0.404435 0.299557 0.980607
